# .PCD v0.7 - Point Cloud Data file format
VERSION 0.7
FIELDS x y z
SIZE 4 4 4
TYPE F F F
COUNT 1 1 1
WIDTH 1516
HEIGHT 1
VIEWPOINT 0 0 0 1 0 0 0
POINTS 1516
DATA ascii
0.048532199 0.0097793303 0.49982199
0.054013599 0.0098192403 0.50144601
0.0595943 0.0098697599 0.50357097
0.0654357 0.0099529997 0.507321
0.071747497 0.0100912 0.51381999
0.078449197 0.0102624 0.52194399
0.085231401 0.0104224 0.52944303
-0.044300102 0.0161549 0.537193
-0.037410598 0.0156388 0.52019399
-0.031709101 0.0155295 0.51669502
-0.026050299 0.0154024 0.51257002
-0.020524001 0.01531 0.50957102
-0.0150795 0.0152373 0.50719601
-0.00968685 0.0151692 0.50494599
-0.0042264001 0.014704 0.48944801
0.00090611499 0.0142057 0.47282401
0.0058701402 0.0141438 0.4707
0.0108516 0.0141616 0.47119999
0.015938301 0.0142629 0.47444901
0.021107299 0.0143725 0.47794899
0.0264764 0.0145507 0.48369801
0.032068498 0.014775 0.49094799
0.0376282 0.0149251 0.49569699
0.0430548 0.0149934 0.497697
0.048467901 0.0150437 0.49907199
0.053969201 0.0151101 0.50094599
0.059589799 0.0151963 0.50344598
0.065462999 0.0153289 0.50744599
0.071637496 0.0155079 0.512945
0.078255698 0.015752399 0.52056903
0.084823102 0.015956599 0.52681899
-0.044357501 0.0218543 0.53781801
-0.037478201 0.021168301 0.52106899
-0.0317281 0.020996399 0.516945
-0.026040301 0.020805299 0.51231998
-0.0205006 0.020666 0.508946
-0.015058 0.0205632 0.506446
-0.0096723801 0.020471601 0.50419599
-0.00430203 0.020233801 0.49832201
0.00094032602 0.0198853 0.48969799
0.0058837198 0.0191519 0.47157499
0.010884 0.0191909 0.47244999
0.0160015 0.019347601 0.476199
0.02135 0.0196425 0.48332301
0.0267427 0.0198572 0.48844799
0.032157399 0.0200171 0.49219701
0.037627 0.020162901 0.495572
0.0430317 0.0202436 0.49732199
0.048441701 0.0203101 0.49869701
0.053966898 0.020408301 0.50082099
0.059661198 0.020548301 0.50394601
0.065492503 0.020710001 0.50757098
0.071652003 0.0209444 0.512945
0.078139998 0.021236399 0.51969498
0.085484199 0.0217089 0.53081799
-0.044312399 0.027505999 0.537193
-0.037564199 0.026732201 0.52219403
-0.031732101 0.0264589 0.516945
-0.0260114 0.026186701 0.51169503
-0.020462099 0.0259926 0.50794601
-0.0150327 0.0258699 0.50557101
-0.0096432203 0.0257228 0.50269598
-0.00430169 0.0255064 0.498447
0.00095067499 0.0252719 0.49382201
0.0060976599 0.025000099 0.48844799
0.0111676 0.024806 0.48457301
0.016284101 0.024804899 0.48444799
0.0215276 0.024952199 0.487198
0.026846001 0.0251134 0.49019799
0.0322151 0.0252629 0.49294701
0.037617698 0.025394499 0.49532199
0.0430208 0.025495199 0.49707201
0.048453599 0.025590699 0.49869701
0.054020401 0.0257324 0.50119603
0.059705101 0.0259011 0.50419599
0.065524101 0.026096901 0.50769597
0.071651302 0.0263776 0.51282001
0.0781582 0.026750101 0.51969498
0.084678598 0.0270792 0.52569401
-0.037596598 0.0322771 0.522569
-0.031789999 0.031978801 0.51782
-0.0260079 0.031589199 0.51156998
-0.0204487 0.031339999 0.50757098
-0.0150146 0.0311769 0.50494599
-0.0096233599 0.0309764 0.50169599
-0.0042912299 0.030715499 0.49744701
0.00095315999 0.0304789 0.493572
0.0061126598 0.0302203 0.48932299
0.011242 0.030117201 0.487573
0.0163913 0.030115699 0.48744801
0.021601399 0.030200301 0.48869801
0.026882101 0.0303325 0.49069801
0.0322331 0.030489299 0.493072
0.0376193 0.0306319 0.495197
0.043022402 0.030752599 0.49694699
0.048479401 0.0308825 0.498822
0.0540892 0.031075699 0.50169599
0.059780501 0.0312781 0.50469601
0.065590203 0.031505302 0.50807101
0.071810201 0.0318815 0.51381999
0.078592598 0.032437999 0.52244401
0.085063502 0.0328026 0.52794403
-0.0376564 0.0378609 0.52331901
-0.031848099 0.037521102 0.518695
-0.0260808 0.037101399 0.512945
-0.020495599 0.036791701 0.50869602
-0.0150186 0.036528599 0.50507098
-0.0096223904 0.036285002 0.50169599
-0.00429114 0.035997499 0.497697
0.00095715001 0.035720401 0.49382201
0.0061283298 0.035462599 0.49019799
0.0112797 0.035377901 0.48894799
0.016449001 0.035385001 0.48894799
0.021665201 0.035465699 0.489948
0.0269331 0.0355841 0.49144799
0.032276999 0.0357491 0.493572
0.0376889 0.035933699 0.495947
0.0431013 0.036074501 0.497697
0.048579801 0.036235001 0.499697
0.0542273 0.036478698 0.50282103
0.059946898 0.036724001 0.50594598
0.065803699 0.037007298 0.50957102
0.072058901 0.037455998 0.51544499
0.078653596 0.038006701 0.52269399
-0.038139399 0.0439521 0.52994299
-0.0319448 0.043138001 0.52019399
-0.026172901 0.042677999 0.51469499
-0.020562701 0.042312901 0.51032001
-0.0150634 0.042001098 0.50657099
-0.0096666701 0.041794501 0.504071
-0.0043143202 0.0415169 0.500696
0.00096508802 0.041116301 0.49582201
0.00616189 0.040841501 0.49244699
0.011324 0.040692501 0.49057299
0.0165076 0.040690001 0.490448
0.021730101 0.040761601 0.491198
0.027005799 0.0408867 0.49257201
0.032371301 0.041085899 0.494822
0.037797902 0.0412971 0.497197
0.043246798 0.041478802 0.49919701
0.048767101 0.041683 0.50144601
0.054407898 0.041940901 0.50432098
0.0601747 0.042242199 0.50769597
0.066068001 0.0425767 0.51144499
0.072415002 0.043131799 0.51782
0.078924201 0.0436997 0.52431899
-0.038263001 0.049720898 0.53156799
-0.0321109 0.0488966 0.52281898
-0.026341399 0.0484365 0.51794499
-0.020670099 0.047966599 0.512945
-0.0151266 0.047568399 0.50869602
-0.0096962797 0.047288802 0.505696
-0.0043295198 0.047022499 0.50282103
0.00097360299 0.046558999 0.49782199
0.0061914702 0.046237402 0.494322
0.0113778 0.046080898 0.49257201
0.016567299 0.0460313 0.491947
0.021790599 0.046076801 0.492322
0.027066 0.046194199 0.49344701
0.0324261 0.046395101 0.49544701
0.0378705 0.046644699 0.49794701
0.0433615 0.046884298 0.50032198
0.048944101 0.047161002 0.50307101
0.054603901 0.047451399 0.50594598
0.060434401 0.047825798 0.50969601
0.066383198 0.048225898 0.513695
0.072843701 0.048909899 0.52069402
0.079573996 0.049667101 0.52844399
-0.032354198 0.054846201 0.526694
-0.0264592 0.054164998 0.52019399
-0.0207271 0.053550798 0.51432002
-0.0151636 0.0530947 0.50994599
-0.00969443 0.052653302 0.505696
-0.0043163099 0.052239701 0.50169599
0.00097827904 0.051814798 0.497572
0.0062060999 0.051547699 0.49494699
0.0114093 0.0514125 0.493572
0.016611099 0.051357199 0.49294701
0.02183 0.051368602 0.49294701
0.027100099 0.051472999 0.49382201
0.0324331 0.051644299 0.49532199
0.037887499 0.051934902 0.49794701
0.0434779 0.0523187 0.50144601
0.049147401 0.052704699 0.50494599
0.054869499 0.053066701 0.508196
0.0608446 0.053587601 0.512945
0.066878602 0.054071799 0.51731998
0.0732577 0.054741502 0.523444
-0.032636099 0.060955402 0.53119302
-0.026698001 0.060219299 0.52481902
-0.0207942 0.059198499 0.51594502
-0.0151856 0.058595501 0.51069498
-0.0096994899 0.0580662 0.50607097
-0.00431561 0.057610501 0.50207102
0.00098522299 0.057170998 0.49819699
0.0062230001 0.056891002 0.49569699
0.0114417 0.0567706 0.49457201
0.016659999 0.0567239 0.49407199
0.0218872 0.056722 0.493947
0.027155999 0.056808099 0.49457201
0.0324989 0.0569968 0.49607199
0.0379632 0.057316702 0.49869701
0.0435852 0.057768099 0.502446
0.0492796 0.058207501 0.50607097
0.055150799 0.058749899 0.51056999
0.061301801 0.059467498 0.51656997
0.067409098 0.060029499 0.52119398
0.073184498 0.0602342 0.52269399
-0.0272804 0.0672241 0.53619301
-0.020951999 0.065168597 0.51981902
-0.0152595 0.064337596 0.51319498
-0.0097282296 0.063649699 0.50769597
-0.00432414 0.063136101 0.50357097
0.00099571305 0.062734202 0.50032198
0.0062594502 0.062444001 0.49794701
0.0114952 0.0622654 0.496447
0.0167311 0.062198602 0.49582201
0.0219732 0.062180799 0.495572
0.0272543 0.0622591 0.49607199
0.032623399 0.0624808 0.497697
0.038097501 0.062814496 0.50019699
0.043694299 0.0632447 0.50344598
0.049474601 0.063818701 0.50782102
0.055542499 0.064615399 0.51394498
0.0617912 0.065462098 0.52044398
0.068168797 0.066296197 0.52681899
0.086913504 0.072618999 0.57643801
-0.0210796 0.071125701 0.52294397
-0.0153816 0.070360199 0.51731998
-0.0097638601 0.069325 0.50969601
-0.0043343799 0.068733901 0.50532103
0.00100631 0.068314902 0.50219601
0.0062966598 0.0680511 0.50019699
0.0115525 0.067823403 0.498447
0.016798999 0.067699797 0.49744701
0.0220604 0.067680404 0.497197
0.027360899 0.067765303 0.497697
0.032733001 0.067971602 0.49907199
0.038185898 0.068265297 0.50107098
0.043805201 0.068748899 0.50444603
0.0497691 0.06961 0.51056999
0.055868901 0.070474103 0.51669502
0.062268499 0.071529001 0.524194
0.071423598 0.075317502 0.551691
0.079456702 0.077439301 0.566939
0.0872586 0.079053603 0.57843798
-0.0399541 0.095333003 0.64993101
-0.032937098 0.094922997 0.64718097
-0.0154962 0.076440997 0.52119398
-0.0097992001 0.075049698 0.51169503
-0.0043409602 0.074320696 0.50669599
0.00101624 0.073850602 0.50344598
0.00631889 0.0735294 0.50119603
0.0115875 0.073283799 0.49944699
0.0168426 0.073132202 0.49832201
0.022115501 0.073111199 0.498072
0.027427601 0.073202699 0.49857199
0.032819498 0.073443398 0.500072
0.038295001 0.073778398 0.50219601
0.043939602 0.074318103 0.505696
0.050005 0.075375102 0.51269501
0.0563736 0.0766377 0.52106899
0.064323202 0.079632699 0.541192
0.072838701 0.082780398 0.56231499
0.079639897 0.083651297 0.56793898
0.087041199 0.084986597 0.57668799
0.108597 0.0929453 0.629933
-0.053892002 0.102607 0.65192997
-0.047231201 0.103125 0.65530503
-0.0398857 0.102072 0.64868098
-0.032713398 0.101121 0.642681
-0.0235622 0.091953203 0.58443803
-0.0098151201 0.080667101 0.51269501
-0.0043503102 0.080003098 0.50844598
0.00102626 0.079380803 0.50444603
0.00633397 0.078937903 0.501571
0.0116176 0.0787334 0.50019699
0.0168873 0.078590401 0.49919701
0.0221719 0.0785679 0.49894699
0.0275025 0.078685597 0.49957201
0.032915801 0.078963503 0.50119603
0.038434401 0.079381898 0.50369602
0.044173799 0.080098704 0.50807101
0.050365001 0.081390299 0.51607001
0.058233999 0.084874503 0.53794301
0.066040799 0.0876543 0.55531597
0.073059298 0.089018397 0.56369001
0.079773404 0.089833997 0.568564
0.086373702 0.090416603 0.57193899
0.099928796 0.0977249 0.617809
0.107365 0.098517202 0.62243301
-0.080892801 0.108766 0.64655602
-0.073844098 0.108464 0.64493102
-0.067002602 0.108438 0.64493102
-0.0602578 0.108585 0.64593101
-0.0536598 0.109071 0.64893103
-0.046973299 0.109498 0.651555
-0.039118301 0.106883 0.63605702
-0.032381602 0.106875 0.63605702
-0.017296599 0.097756699 0.58181298
-0.00436563 0.085856698 0.51094502
0.00103943 0.085150197 0.50669599
0.00636716 0.084593199 0.50332099
0.0116719 0.084374897 0.50194597
0.016979501 0.084306203 0.50144601
0.0222794 0.084240101 0.50094599
0.027627099 0.084344797 0.50144601
0.033046499 0.084599502 0.50282103
0.038575601 0.085025303 0.50519598
0.044366501 0.085853897 0.50994599
0.0529489 0.091316998 0.54219198
0.060153101 0.0935653 0.55531597
0.0668706 0.094723098 0.56194001
0.073461197 0.0955268 0.56643999
0.080050498 0.096207999 0.570189
0.099240802 0.103579 0.61318499
0.106372 0.104171 0.61630899
0.113674 0.104852 0.61993402
0.119536 0.104205 0.61568397
0.126344 0.104408 0.61643398
-0.126286 0.113443 0.632182
-0.119833 0.113676 0.633807
-0.113578 0.114137 0.63668197
-0.107646 0.115005 0.64180601
-0.101535 0.115786 0.64643103
-0.094909802 0.116057 0.64818102
-0.087880298 0.115839 0.64718097
-0.080157898 0.114597 0.640432
-0.073385097 0.114611 0.64068198
-0.066675901 0.114741 0.64155602
-0.059974801 0.11492 0.642681
-0.053335302 0.115281 0.64480603
-0.038327899 0.111367 0.62305802
-0.031992801 0.112298 0.628308
-0.017273201 0.103849 0.58106297
-0.0110393 0.103137 0.57706302
0.011762 0.090330102 0.50519598
0.0170942 0.090190098 0.50432098
0.0224106 0.090052798 0.50344598
0.027773799 0.090119503 0.50369602
0.033220001 0.090390503 0.50507098
0.0480326 0.098797902 0.551691
0.054231402 0.0994168 0.554941
0.0606681 0.100308 0.55969
0.067153297 0.101114 0.56393999
0.073736601 0.101924 0.56818902
0.080330797 0.102627 0.571814
0.088938899 0.105622 0.58818698
0.097887598 0.108603 0.60443503
0.105188 0.109501 0.60905999
0.11182 0.10964 0.60943502
0.118617 0.109918 0.61056
0.12581 0.110515 0.61343402
0.133591 0.111546 0.61868399
0.14121699 0.112358 0.62268299
-0.1244 0.118392 0.62243301
-0.118639 0.119234 0.62718302
-0.112517 0.119794 0.63043302
-0.106459 0.120501 0.63443202
-0.1005 0.121425 0.639557
-0.094036303 0.121831 0.641931
-0.086763397 0.121174 0.63868201
-0.079267703 0.120071 0.633057
-0.072655201 0.120229 0.63405699
-0.066064402 0.120462 0.635432
-0.059459399 0.120723 0.63693202
-0.052722 0.12075 0.637182
-0.0445299 0.116969 0.61730897
-0.038052998 0.11717 0.61843401
-0.031546801 0.117352 0.619434
-0.0246168 0.115643 0.61043501
-0.017294399 0.11022 0.58181298
-0.0110372 0.109347 0.57718801
-0.0048686299 0.108288 0.57156402
0.00118256 0.107279 0.56619
0.0070866598 0.105752 0.558065
0.0128906 0.104797 0.55294102
0.018728301 0.104626 0.55194098
0.024592601 0.104649 0.55194098
0.0304674 0.104698 0.55206603
0.0363818 0.104845 0.55269098
0.042323701 0.10502 0.55344099
0.048330199 0.105293 0.55469102
0.054527901 0.105878 0.55756497
0.060887899 0.106633 0.561315
0.067394301 0.107487 0.56556499
0.073950201 0.108275 0.56943899
0.080526799 0.108972 0.57281399
0.089018703 0.111981 0.58831197
0.097103402 0.114116 0.599186
0.10446 0.115186 0.60443503
0.111161 0.115452 0.60543501
0.117774 0.115603 0.60580999
0.125074 0.116379 0.60943502
0.13252001 0.117208 0.61330998
0.13989399 0.117901 0.61643398
0.146222 0.117689 0.61480898
0.151971 0.117051 0.61093497
-0.13663401 0.124167 0.61705899
-0.12874401 0.122886 0.61106002
-0.122566 0.123194 0.61293501
-0.117257 0.124461 0.61955899
-0.111502 0.12537999 0.62443298
-0.105274 0.125852 0.62705803
-0.099055298 0.126403 0.63005799
-0.092578202 0.126682 0.63168299
-0.0853929 0.125963 0.628308
-0.078284703 0.125249 0.624933
-0.072040997 0.125917 0.62843299
-0.065622799 0.126389 0.63093299
-0.0589916 0.126514 0.63168299
-0.051964398 0.125718 0.62780797
-0.0442462 0.122773 0.61318499
-0.037686098 0.122586 0.61230999
-0.031273 0.122903 0.61393398
-0.024624299 0.122223 0.61056
-0.0173971 0.117168 0.58531201
-0.0110779 0.11602 0.57956302
-0.0048721898 0.114701 0.57293898
0.0011993001 0.11386 0.56868899
0.0071379198 0.112322 0.56094003
0.0129639 0.111213 0.55531597
0.018809 0.110907 0.55369103
0.0246785 0.110856 0.553316
0.030592 0.110983 0.55381602
0.036545001 0.111189 0.55469102
0.042550001 0.111474 0.55594099
0.048619401 0.111838 0.55756497
0.054814801 0.112381 0.56006497
0.061124101 0.113029 0.56306499
0.067548901 0.113756 0.56643999
0.0742158 0.114739 0.571064
0.080919497 0.115626 0.57518899
0.089442603 0.118806 0.59068698
0.096686698 0.119981 0.59618598
0.103519 0.120533 0.59856099
0.109748 0.120359 0.59731102
0.116277 0.120517 0.59768599
0.124136 0.121967 0.60443503
0.13183101 0.12312 0.609685
0.138717 0.123447 0.61080998
0.14418501 0.12254 0.60580999
0.15018199 0.122143 0.603311
0.156726 0.122206 0.60306102
0.163452 0.122401 0.60343599
0.170662 0.122932 0.60543501
0.17617901 0.12225 0.60143602
0.18132401 0.121369 0.59643602
0.186932 0.120848 0.59318697
-0.149101 0.130218 0.61330998
-0.142747 0.13036799 0.614434
-0.13574401 0.129913 0.61268502
-0.127341 0.12800799 0.60405999
-0.121184 0.128281 0.605685
-0.115735 0.12937801 0.61118501
-0.110065 0.130348 0.61605901
-0.104132 0.131109 0.61993402
-0.097749002 0.131373 0.62143397
-0.091212697 0.131457 0.62205899
-0.084142096 0.13072599 0.61880898
-0.0776003 0.130766 0.61918402
-0.071413502 0.13147099 0.62268299
-0.0651173 0.1321 0.625808
-0.0585129 0.13217901 0.62630802
-0.05099 0.129942 0.61580902
-0.0440442 0.128738 0.61018503
-0.0375273 0.128594 0.60956001
-0.031024801 0.128453 0.608935
-0.0244605 0.127921 0.606435
-0.0175556 0.124599 0.59068698
-0.0111063 0.122625 0.58131301
-0.0048922398 0.121577 0.57631302
0.00121971 0.120797 0.57256401
0.0072236201 0.119519 0.56643999
0.013053 0.117822 0.55831498
0.0188994 0.11729 0.555691
0.0247993 0.117262 0.55544102
0.0307598 0.117475 0.55631602
0.036784299 0.117825 0.55781502
0.042845499 0.118178 0.55931503
0.048922099 0.118482 0.56056499
0.05508 0.118896 0.56231499
0.061376698 0.1195 0.56493998
0.067840703 0.120293 0.56843901
0.074614801 0.121461 0.57368898
0.081263199 0.122264 0.57718801
0.088658497 0.123999 0.58506298
0.096212298 0.125714 0.592812
0.102754 0.125976 0.593687
0.108405 0.125183 0.589562
0.114929 0.12542801 0.590312
0.12333 0.127592 0.600061
0.13090201 0.128727 0.60493499
0.137089 0.12845799 0.60318601
0.141734 0.126835 0.595061
0.14833499 0.127028 0.59543598
0.155448 0.127627 0.59768599
0.162662 0.128259 0.600061
0.168396 0.127722 0.59693599
0.173715 0.126921 0.59256202
0.179565 0.126554 0.59018701
0.18534499 0.126164 0.58768702
0.190153 0.125163 0.582313
0.196933 0.12548199 0.58306301
-0.15452699 0.13583 0.60818499
-0.147827 0.13562 0.60768503
-0.141092 0.13536 0.60693502
-0.13374899 0.13446499 0.603311
-0.126178 0.13324299 0.59818602
-0.120254 0.133725 0.60068601
-0.114641 0.134629 0.60505998
-0.108831 0.135398 0.60881001
-0.10276 0.135921 0.611435
-0.096699797 0.13653199 0.614434
-0.090214998 0.136593 0.61493403
-0.083113402 0.13565899 0.61093497
-0.076838903 0.136034 0.61281002
-0.070859 0.137052 0.61755902
-0.064560898 0.137603 0.620184
-0.0578015 0.137188 0.61843401
-0.050471399 0.135141 0.60930997
-0.043788798 0.134486 0.606435
-0.037245899 0.134112 0.60481
-0.0308342 0.134158 0.60505998
-0.0243573 0.133876 0.60381001
-0.017673099 0.131853 0.59468597
-0.0111321 0.129251 0.58293802
-0.0048969202 0.12815 0.57793802
0.00123609 0.12733001 0.57418901
0.0072849002 0.12640201 0.56993902
0.0132223 0.125257 0.56468999
0.0190764 0.124282 0.56019002
0.0249721 0.123975 0.55869001
0.030964101 0.124172 0.55944002
0.037042301 0.124595 0.56119001
0.0431339 0.124939 0.56256503
0.0491946 0.12512 0.56318998
0.055335701 0.12544399 0.56444001
0.061632201 0.12602299 0.56681401
0.068180598 0.126968 0.57081401
0.075001203 0.128224 0.57618803
0.081716403 0.129124 0.57993799
0.088502198 0.13000201 0.58356303
0.095436402 0.130969 0.58756202
0.101969 0.1313 0.588687
0.107686 0.130605 0.58518702
0.113729 0.13036001 0.58368802
0.122323 0.13291299 0.59468597
0.128949 0.133183 0.59543598
0.134497 0.132367 0.59131199
0.139761 0.131359 0.586312
0.14648999 0.13175599 0.58756202
0.15349101 0.132356 0.58968699
0.159945 0.132458 0.589562
0.16599301 0.132228 0.587937
0.172243 0.132173 0.587062
0.177696 0.131532 0.58356303
0.18222401 0.130275 0.57731301
0.187902 0.129897 0.57493901
0.19621199 0.13130599 0.58043802
0.20467 0.132725 0.58593702
-0.159806 0.141303 0.60281098
-0.152915 0.140872 0.60143602
-0.14616001 0.140535 0.60043597
-0.13944 0.140204 0.59943599
-0.13214301 0.139238 0.59568602
-0.124938 0.13827799 0.59193701
-0.119176 0.138901 0.59493601
-0.113668 0.139907 0.59956098
-0.107957 0.140772 0.60356098
-0.101916 0.14129201 0.60606003
-0.095376603 0.141147 0.605685
-0.088429801 0.14033701 0.60243601
-0.082289897 0.14078499 0.60456002
-0.076313898 0.141615 0.60830998
-0.070348799 0.142625 0.61281002
-0.064070597 0.143144 0.61518401
-0.0572895 0.142534 0.61268502
-0.050108898 0.14065 0.60468501
-0.043552101 0.14022399 0.60293603
-0.0370497 0.139861 0.60143602
-0.030580301 0.139503 0.59993601
-0.024108101 0.138945 0.597561
-0.0176643 0.138218 0.59443599
-0.0112029 0.13647801 0.58693701
-0.0049032401 0.134829 0.579813
0.0012529 0.133881 0.575688
0.0073312102 0.133084 0.57218897
0.0133433 0.132348 0.56893897
0.0193232 0.13184801 0.56668901
0.025241699 0.131266 0.56406498
0.031205 0.13109399 0.56318998
0.0372614 0.13130499 0.56393999
0.0433481 0.131549 0.56481498
0.049426101 0.13171101 0.56531501
0.055557501 0.131964 0.56619
0.061877299 0.132571 0.568564
0.068464197 0.13359199 0.572689
0.075228497 0.134764 0.577438
0.081768401 0.135387 0.579813
0.0882544 0.13584 0.581438
0.0948257 0.13635699 0.58331299
0.101253 0.136617 0.58406299
0.106855 0.13579901 0.58018798
0.112483 0.135103 0.57681298
0.121447 0.13827699 0.58993697
0.127891 0.138413 0.59006202
0.13324399 0.13741 0.58531201
0.13850699 0.136411 0.58056301
0.14446101 0.136151 0.57893801
0.150234 0.135749 0.57668799
0.156654 0.135941 0.57693797
0.163945 0.136848 0.58018798
0.17033599 0.13696501 0.58006299
0.175603 0.13620301 0.57618803
0.179067 0.13414399 0.56681401
0.185369 0.134278 0.56668901
0.194314 0.13625699 0.574314
0.20210101 0.137329 0.57806301
0.209142 0.13784499 0.57943797
-0.16555201 0.147182 0.59943599
-0.15839601 0.146478 0.59706098
-0.151243 0.145721 0.59443599
-0.14440501 0.145216 0.592812
-0.13778999 0.14490201 0.59193701
-0.130595 0.143921 0.58831197
-0.123675 0.143162 0.58556199
-0.118001 0.14384399 0.588687
-0.112388 0.144684 0.59243703
-0.106816 0.14568201 0.596811
-0.100317 0.145464 0.59618598
-0.093660802 0.144977 0.59443599
-0.087452903 0.14516699 0.59543598
-0.081570096 0.14597 0.59893602
-0.075774796 0.147083 0.60368502
-0.0698255 0.14807899 0.60793501
-0.063477203 0.148348 0.60918498
-0.0566849 0.14752699 0.60593498
-0.049778301 0.146164 0.60043597
-0.0433884 0.146144 0.60043597
-0.036846299 0.145521 0.59793597
-0.0303203 0.14472 0.59468597
-0.0239347 0.14434899 0.59318697
-0.017566301 0.14386199 0.591187
-0.0111948 0.142801 0.58681202
-0.0049090502 0.141562 0.58168799
0.0012707 0.14050999 0.57731301
0.0073688701 0.139644 0.57368898
0.0134246 0.139118 0.57143903
0.0194565 0.13874701 0.56981403
0.0254573 0.138381 0.56818902
0.031434201 0.13805 0.56668901
0.037449598 0.13796601 0.56619
0.0434976 0.138009 0.56619
0.0495729 0.138117 0.56643999
0.0557331 0.138413 0.56743902
0.062057398 0.139019 0.56968898
0.0686315 0.140026 0.57356399
0.075231299 0.140917 0.57693797
0.081594497 0.14126401 0.57806301
0.087743998 0.141219 0.57756299
0.094258502 0.141729 0.57931298
0.100669 0.142031 0.58018798
0.105014 0.139553 0.56968898
0.112191 0.14090601 0.57481402
0.120343 0.143278 0.58406299
0.126919 0.14363401 0.58506298
0.132278 0.142645 0.58056301
0.137375 0.14147601 0.57531399
0.14277899 0.14071099 0.57168901
0.148249 0.140074 0.568564
0.154484 0.14018101 0.56843901
0.16112299 0.140634 0.56968898
0.16751499 0.140847 0.56993902
0.172636 0.140016 0.56594002
0.17682 0.13850901 0.55918998
0.183331 0.13886499 0.55993998
0.19170199 0.140563 0.56606501
0.198311 0.14090499 0.56668901
0.20455401 0.140976 0.56619
0.211465 0.14149 0.56743902
-0.170397 0.152252 0.59306198
-0.163468 0.151702 0.59143698
-0.156625 0.15119199 0.58993697
-0.149606 0.150466 0.58756202
-0.142957 0.150067 0.58643699
-0.13643301 0.149771 0.58568698
-0.129299 0.148747 0.58206302
-0.12273 0.148305 0.580688
-0.117054 0.148955 0.58356303
-0.111396 0.14970499 0.58681202
-0.10561 0.150365 0.58968699
-0.0993075 0.15032899 0.58981198
-0.092950702 0.150203 0.589562
-0.086826399 0.150464 0.59081203
-0.080936901 0.151208 0.59393698
-0.075190097 0.152371 0.59868598
-0.069202997 0.15322 0.60218602
-0.062845796 0.15334301 0.60281098
-0.056092799 0.152422 0.59931099
-0.049365599 0.151347 0.595186
-0.043099001 0.151581 0.59618598
-0.036581799 0.150866 0.59343702
-0.0301244 0.15015601 0.59068698
-0.0237565 0.14964201 0.588687
-0.0174239 0.149069 0.58643699
-0.0111388 0.14850099 0.58418798
-0.00489754 0.147842 0.581563
0.00128755 0.146997 0.578188
0.0074042799 0.14618801 0.57493901
0.0134895 0.14576501 0.57318902
0.019557299 0.145474 0.57193899
0.0255908 0.145124 0.57043898
0.031596102 0.144778 0.56893897
0.037623499 0.144627 0.56818902
0.043649402 0.144513 0.56756401
0.049722198 0.144563 0.56756401
0.0559115 0.144904 0.56868899
0.062254298 0.145537 0.570939
0.0686974 0.14627101 0.57356399
0.075074203 0.14675599 0.57518899
0.081141204 0.146608 0.574314
0.087160401 0.146401 0.57318902
0.093348302 0.146486 0.57318902
0.099199198 0.146066 0.57118899
0.104003 0.144243 0.56369001
0.111586 0.146264 0.57118899
0.11937 0.14832599 0.57881302
0.125787 0.148569 0.57931298
0.131403 0.147888 0.57618803
0.136755 0.146988 0.57218897
0.142005 0.14606 0.56806397
0.147181 0.145137 0.56393999
0.153065 0.144958 0.56269002
0.159328 0.14514101 0.56281501
0.16550399 0.14523301 0.56256503
0.17051101 0.14433099 0.55844003
0.175092 0.143143 0.55319101
0.181788 0.14370801 0.55469102
0.18939 0.14493001 0.55869001
0.19583599 0.14522099 0.55906498
0.202181 0.145423 0.55906498
0.20897301 0.145926 0.56019002
0.21630099 0.14676499 0.56256503
-0.17760199 0.15943 0.59493601
-0.169028 0.15737399 0.58781201
-0.16125 0.15593199 0.58293802
-0.15475699 0.15566801 0.58243799
-0.14828999 0.155412 0.58193803
-0.141848 0.155163 0.581438
-0.135371 0.154854 0.580688
-0.12842301 0.153953 0.57768798
-0.121868 0.153459 0.57618803
-0.116184 0.15407 0.57881302
-0.110524 0.15478601 0.58181298
-0.104697 0.155341 0.58418798
-0.098510899 0.155403 0.58468801
-0.092341296 0.155504 0.58531201
-0.086330503 0.15591 0.587062
-0.0804758 0.15668599 0.59018701
-0.074685402 0.15773199 0.59431201
-0.068624899 0.158352 0.596811
-0.0623198 0.15848 0.59743601
-0.0556655 0.15765201 0.59443599
-0.048829298 0.15603399 0.58843702
-0.0425753 0.15607899 0.588687
-0.0363102 0.156096 0.58881199
-0.029948 0.15562101 0.587062
-0.023618801 0.15511701 0.58518702
-0.0173112 0.15445399 0.58268797
-0.0110517 0.15372799 0.57993799
-0.0048583001 0.153273 0.578188
0.0012989 0.15279 0.57631302
0.0074244998 0.15244301 0.57493901
0.013532 0.152201 0.57393903
0.0196297 0.15203001 0.57318902
0.0256924 0.151731 0.57193899
0.031732298 0.151437 0.57068902
0.037749998 0.15114801 0.56943899
0.043784399 0.150996 0.56868899
0.049863201 0.151015 0.568564
0.056043699 0.151305 0.56943899
0.062345199 0.151832 0.57118899
0.068631597 0.15223201 0.57243901
0.0746914 0.152106 0.57168901
0.080566898 0.15165199 0.56968898
0.086617596 0.15156899 0.56906402
0.092684902 0.15152501 0.568564
0.10318 0.149086 0.55869001
0.110936 0.151493 0.56731403
0.118427 0.153309 0.57368898
0.124767 0.153529 0.57406402
0.13064501 0.15318599 0.57231402
0.13610999 0.15241501 0.56893897
0.141361 0.15148 0.56493998
0.146312 0.150316 0.56006497
0.151581 0.14955901 0.55669099
0.157184 0.149177 0.55469102
0.163202 0.149204 0.55419099
0.168657 0.148734 0.55181599
0.173526 0.147797 0.54769099
0.18020999 0.14841899 0.54931599
0.187251 0.149286 0.55181599
0.193496 0.149487 0.55181599
0.19976801 0.14969601 0.55181599
0.20644 0.150185 0.55281597
0.213259 0.15075199 0.554066
0.222417 0.152896 0.56106502
-0.184155 0.16602799 0.59443599
-0.175816 0.16419099 0.58843702
-0.16762701 0.16236401 0.58243799
-0.159622 0.160584 0.576563
-0.15322401 0.160345 0.57618803
-0.147137 0.16042601 0.57693797
-0.140864 0.16030601 0.57693797
-0.134196 0.15970699 0.57518899
-0.12727199 0.15873501 0.57206398
-0.120983 0.158498 0.57156402
-0.115217 0.15896 0.57356399
-0.109655 0.159775 0.57681298
-0.103921 0.160422 0.57943797
-0.097906001 0.160694 0.580688
-0.091832697 0.16090301 0.58168799
-0.085891798 0.161394 0.58368802
-0.080050699 0.162167 0.58668703
-0.074245296 0.16315299 0.590437
-0.068163298 0.16366 0.59243703
-0.061808001 0.163552 0.59218699
-0.055040099 0.16220701 0.58743697
-0.0483559 0.160798 0.58243799
-0.042160701 0.160845 0.58268797
-0.036015999 0.161138 0.58381301
-0.0298103 0.16123 0.58418798
-0.0235117 0.16074 0.58243799
-0.017206 0.159842 0.57918799
-0.010974 0.15901799 0.57618803
-0.0048083002 0.15830199 0.57356399
0.00130566 0.15793701 0.57218897
0.0074116001 0.15798999 0.57231402
0.0135403 0.158255 0.57318902
0.0196735 0.158388 0.57356399
0.025778901 0.15828399 0.57306403
0.031842701 0.158013 0.57193899
0.0378704 0.15767699 0.57056397
0.043912299 0.15748499 0.56968898
0.049984898 0.157436 0.569314
0.056117199 0.157565 0.56956398
0.062275302 0.15773401 0.56993902
0.068373799 0.157736 0.56968898
0.074115098 0.15698101 0.56668901
0.079977296 0.15657701 0.56493998
0.085944198 0.156422 0.56406498
0.096219897 0.153524 0.55294102
0.102498 0.154043 0.55444098
0.110142 0.156445 0.56269002
0.117617 0.15837 0.56918901
0.12405 0.15877301 0.570189
0.129834 0.158347 0.56818902
0.135111 0.157369 0.56418997
0.140378 0.15646499 0.56044
0.14512201 0.15507799 0.554941
0.150306 0.154254 0.55144101
0.155963 0.153961 0.54981601
0.161825 0.15388399 0.54894102
0.166922 0.15311299 0.54556698
0.171885 0.15227699 0.541942
0.17892399 0.153275 0.54481697
0.18558399 0.153896 0.54631698
0.19173101 0.15406901 0.54619199
0.19776601 0.154144 0.54569203
0.20344301 0.153945 0.54419202
0.20959599 0.154108 0.54394197
0.216566 0.154847 0.54569203
0.22365899 0.155634 0.547566
-0.179599 0.168198 0.57918799
-0.17373499 0.168538 0.58093798
-0.166123 0.167147 0.57668799
-0.158933 0.16609301 0.57356399
-0.152128 0.165374 0.57156402
-0.145955 0.165314 0.571814
-0.139792 0.165261 0.57206398
-0.13319799 0.164675 0.57043898
-0.126513 0.16391601 0.56818902
-0.120312 0.16374101 0.56793898
-0.114378 0.16393401 0.56893897
-0.108575 0.164349 0.57068902
-0.103012 0.16520201 0.57393903
-0.097240403 0.16580801 0.57631302
-0.091286898 0.166169 0.57781303
-0.085400201 0.166715 0.57993799
-0.079593599 0.167519 0.58293802
-0.073759697 0.1684 0.58618701
-0.0676599 0.16878299 0.58768702
-0.0612843 0.16849101 0.58681202
-0.054626498 0.167271 0.58268797
-0.048080701 0.16613001 0.57881302
-0.0419458 0.16628601 0.57943797
-0.035838101 0.16662601 0.580688
-0.0296604 0.166721 0.58106297
-0.023404799 0.16632 0.57968801
-0.0171306 0.16545799 0.57668799
-0.0109153 0.164529 0.573439
-0.00476122 0.16335499 0.569314
0.00130618 0.162185 0.56519002
0.0073263398 0.161882 0.56406498
0.0134195 0.16273201 0.566939
0.0196587 0.164269 0.57218897
0.0257995 0.16444799 0.572689
0.031871501 0.164202 0.57168901
0.0379267 0.16396099 0.57068902
0.043975201 0.163761 0.56981403
0.050021499 0.16360299 0.56906402
0.056095 0.16355801 0.56868899
0.062139802 0.16344599 0.56806397
0.067938402 0.162764 0.56544
0.0735083 0.16169199 0.56143999
0.079337098 0.16130801 0.55981499
0.085273303 0.161182 0.55906498
0.096321598 0.159612 0.55294102
0.10256 0.16008 0.55419099
0.109916 0.162145 0.56094003
0.116991 0.16360401 0.56556499
0.123201 0.16377001 0.56568998
0.128599 0.162892 0.56219
0.13399599 0.162092 0.55893999
0.13939901 0.16136999 0.55594099
0.144557 0.16043501 0.55219102
0.149444 0.159288 0.54769099
0.154819 0.158728 0.545192
0.16045099 0.158466 0.54369199
0.165305 0.157481 0.53969198
0.17068601 0.15705 0.53756797
0.177479 0.157904 0.53981698
0.18400601 0.158476 0.541067
0.18988401 0.158471 0.540317
0.195815 0.158512 0.53969198
0.201105 0.15804601 0.53731799
0.206609 0.157772 0.535568
0.213741 0.158723 0.53794301
0.221828 0.16031399 0.54244202
0.230579 0.16229101 0.54819101
-0.185306 0.17400201 0.57643801
-0.178067 0.172989 0.57368898
-0.171956 0.173042 0.57443899
-0.16512699 0.17235 0.572689
-0.15818 0.171481 0.57031399
-0.151335 0.17065901 0.56806397
-0.14506499 0.17044599 0.56781399
-0.13896801 0.17042799 0.56818902
-0.13240901 0.169819 0.56656498
-0.12587 0.169181 0.56481498
-0.119751 0.169074 0.56481498
-0.113819 0.169236 0.56568998
-0.107997 0.16959199 0.56718898
-0.102331 0.17025299 0.56968898
-0.096577302 0.170845 0.57193899
-0.090704098 0.171294 0.57368898
-0.084818698 0.171786 0.57556301
-0.079053096 0.17262 0.57856297
-0.073213004 0.17342301 0.581438
-0.067129299 0.173746 0.58268797
-0.060840301 0.173554 0.58218801
-0.054260898 0.1724 0.57843798
-0.047785699 0.171326 0.57493901
-0.041740902 0.171711 0.57631302
-0.0356686 0.172102 0.57768798
-0.029510999 0.17216299 0.57793802
-0.023303401 0.171895 0.57706302
-0.017077601 0.17126 0.57493901
-0.0108708 0.170221 0.57143903
-0.0047160098 0.16840599 0.56531501
0.00131219 0.166969 0.56044
0.00727063 0.166281 0.558065
0.0132222 0.16611999 0.55743998
0.019227801 0.16652399 0.55869001
0.0254214 0.16797601 0.56344002
0.031748701 0.16958299 0.56868899
0.0378603 0.169706 0.56893897
0.043905199 0.16953599 0.56818902
0.049939699 0.16937201 0.56743902
0.055989001 0.16928799 0.566939
0.0618839 0.168799 0.56506503
0.067159504 0.166859 0.55831498
0.072854497 0.16619299 0.55581599
0.0788588 0.16628 0.55581599
0.085005797 0.16663601 0.55669099
0.096624099 0.16605499 0.554066
0.10272 0.16628 0.55444098
0.10962 0.167712 0.558815
0.116266 0.16862699 0.56143999
0.122192 0.16846 0.56044
0.127224 0.167135 0.55556601
0.13300399 0.166868 0.55419099
0.13873801 0.16656999 0.55269098
0.14412899 0.165902 0.549941
0.148724 0.16441 0.544442
0.15378501 0.163526 0.54094201
0.15900899 0.162875 0.53819299
0.16376901 0.161814 0.53406799
0.169571 0.16181999 0.53344297
0.176451 0.16282099 0.53606802
0.182818 0.16330101 0.53694302
0.18852501 0.16318201 0.53581798
0.19386899 0.16276599 0.53369302
0.198818 0.16205201 0.530568
0.204639 0.162072 0.529818
0.21151701 0.16290499 0.53169298
0.21882799 0.164019 0.53444302
0.225288 0.164455 0.53494298
-0.19724099 0.18566699 0.59243703
-0.18553901 0.180491 0.576563
-0.177434 0.178579 0.571064
-0.170856 0.17812601 0.570189
-0.16428 0.177642 0.56918901
-0.157258 0.176623 0.56643999
-0.15058 0.175926 0.56468999
-0.144371 0.175744 0.564565
-0.138271 0.175686 0.56481498
-0.131828 0.17517 0.56356502
-0.125313 0.17450801 0.56181502
-0.119246 0.174435 0.56194001
-0.113363 0.174642 0.56294
-0.10754 0.174971 0.56431502
-0.101832 0.17554 0.56643999
-0.096127898 0.176192 0.56881398
-0.0902225 0.176541 0.570189
-0.084294602 0.176897 0.57156402
-0.078514501 0.177645 0.57418901
-0.072668001 0.178361 0.57668799
-0.066614501 0.17865799 0.57781303
-0.060410701 0.178574 0.57768798
-0.053755801 0.176991 0.572689
-0.047460601 0.176341 0.57068902
-0.0415188 0.17701 0.57293898
-0.0354845 0.177453 0.57443899
-0.029342899 0.177439 0.57443899
-0.023177 0.177238 0.57381397
-0.0170062 0.17685001 0.57256401
-0.0108333 0.17600501 0.56981403
-0.0046820198 0.173813 0.56269002
0.00132268 0.172207 0.55743998
0.00724144 0.171185 0.554066
0.0131379 0.17078599 0.55269098
0.019055201 0.170818 0.55269098
0.0250437 0.17131899 0.55419099
0.031110199 0.172058 0.55644101
0.037604298 0.17454299 0.56431502
0.0437214 0.17483 0.56506503
0.049717098 0.174621 0.56418997
0.055453099 0.17364401 0.56081498
0.060766999 0.171666 0.55419099
0.066472299 0.171047 0.55194098
0.072350301 0.170938 0.55131602
0.078418598 0.171261 0.55206603
0.085334003 0.173259 0.55818999
0.096539102 0.17184401 0.55294102
0.102444 0.171766 0.55231601
0.109083 0.17286301 0.55544102
0.115518 0.173539 0.55719
0.121078 0.17289899 0.55469102
0.126167 0.17168 0.55031598
0.132107 0.17167599 0.54981601
0.13811401 0.171758 0.54956597
0.143509 0.171105 0.546942
0.14804401 0.16951799 0.54131699
0.15279201 0.16828901 0.53681803
0.157755 0.16737799 0.53331798
0.162699 0.166513 0.52994299
0.16858201 0.166637 0.52969301
0.17522299 0.167478 0.53169298
0.181337 0.167779 0.53194302
0.186776 0.167457 0.53019297
0.192201 0.167143 0.52844399
0.19653501 0.16592699 0.52381903
0.20282 0.166382 0.52444398
0.209548 0.16716599 0.52606899
0.21619 0.167843 0.52731901
0.223105 0.16869199 0.52906799
0.23155899 0.170632 0.53419298
-0.192876 0.187867 0.57868803
-0.184451 0.18567 0.57256401
-0.176768 0.184094 0.56831402
-0.169686 0.183057 0.56568998
-0.16304199 0.18243501 0.56431502
-0.156342 0.181702 0.56256503
-0.14993 0.181261 0.56168997
-0.143746 0.181072 0.56156498
-0.137578 0.18089101 0.56143999
-0.13122199 0.180437 0.56044
-0.124817 0.17986999 0.55906498
-0.118825 0.179875 0.55944002
-0.112887 0.179967 0.56006497
-0.106897 0.179987 0.56044
-0.101246 0.18061601 0.56269002
-0.095639102 0.181411 0.56544
-0.089802898 0.181852 0.56706399
-0.083865099 0.18213999 0.56818902
-0.077960901 0.18255401 0.56968898
-0.0721405 0.183255 0.57206398
-0.066144601 0.18360201 0.57331401
-0.059930202 0.183355 0.572689
-0.0533926 0.18195499 0.56843901
-0.047178201 0.18144201 0.566939
-0.041306701 0.182294 0.56968898
-0.0353011 0.182753 0.57118899
-0.029175401 0.182659 0.570939
-0.023045899 0.18249001 0.57043898
-0.01692 0.182248 0.56968898
-0.0107815 0.181532 0.56743902
-0.0046799202 0.18042199 0.56393999
0.00133783 0.177958 0.55619103
0.0072193602 0.17618001 0.55056602
0.0130572 0.17540701 0.54806602
0.0189048 0.175199 0.54731703
0.024705799 0.174758 0.54581702
0.030534601 0.174642 0.54531699
0.036498901 0.17521299 0.546942
0.0426968 0.17659099 0.55106598
0.0483936 0.17581201 0.54844099
0.054250401 0.175721 0.54794103
0.060075801 0.17555501 0.54719198
0.065801904 0.175155 0.54569203
0.071881302 0.17568301 0.54706699
0.078105703 0.17646 0.549191
0.085303701 0.17917299 0.55731499
0.088549502 0.17377301 0.54019201
0.095169596 0.175254 0.544442
0.10194 0.17682301 0.54894102
0.108599 0.17804 0.55231601
0.114801 0.178418 0.55306602
0.120131 0.17747299 0.54969102
0.12540101 0.176533 0.54631698
0.131304 0.17652901 0.54581702
0.13721199 0.176533 0.54531699
0.142371 0.175613 0.541942
0.147027 0.174173 0.53694302
0.15201899 0.173224 0.53344297
0.156692 0.171997 0.52906799
0.161902 0.171426 0.526694
0.167798 0.17159501 0.52656901
0.174125 0.17218199 0.52769399
0.180117 0.17241099 0.52769399
0.18564899 0.17219999 0.52631903
0.18976501 0.170729 0.52106899
0.19482 0.170164 0.51857001
0.201346 0.170881 0.51994401
0.20738401 0.171158 0.51994401
0.214173 0.172023 0.521694
0.221351 0.173149 0.524194
0.229707 0.175116 0.52919298
0.23676901 0.176025 0.53094298
-0.201351 0.196357 0.58381301
-0.19001199 0.191294 0.56943899
-0.183007 0.19040599 0.56743902
-0.17587499 0.18932 0.56481498
-0.16882101 0.188246 0.56219
-0.162278 0.187685 0.56106502
-0.155847 0.18721899 0.56019002
-0.14948601 0.186803 0.55944002
-0.14322101 0.186481 0.55893999
-0.13707399 0.18629301 0.558815
-0.13070901 0.18578 0.55769002
-0.124353 0.18523499 0.55644101
-0.118409 0.18528099 0.55694002
-0.112439 0.185293 0.55731499
-0.106424 0.185229 0.55743998
-0.100685 0.185672 0.55906498
-0.095089801 0.186453 0.56168997
-0.089326598 0.18699101 0.56356502
-0.083456501 0.187371 0.56493998
-0.077528998 0.187675 0.56606501
-0.071614899 0.188069 0.56743902
-0.0656619 0.188427 0.56868899
-0.059542801 0.188337 0.568564
-0.052983802 0.186681 0.56369001
-0.046897002 0.18648 0.56318998
-0.041113801 0.187611 0.56668901
-0.035133898 0.188085 0.56818902
-0.0290277 0.18794601 0.56781399
-0.0229102 0.187647 0.566939
-0.0168081 0.18731301 0.56594002
-0.0107225 0.186903 0.56468999
-0.00465672 0.186251 0.56269002
0.00135992 0.184571 0.55756497
0.0072093699 0.181407 0.54794103
0.013022 0.180566 0.54531699
0.018794101 0.179855 0.54306698
0.0245384 0.17927299 0.541192
0.0302814 0.178905 0.53994203
0.0360438 0.17874999 0.53931701
0.041836601 0.178766 0.53919202
0.047687501 0.178996 0.53969198
0.0535306 0.17915 0.53994203
0.059413299 0.17939299 0.54044199
0.065495297 0.18014 0.54244202
0.071825802 0.181393 0.54594201
0.078169703 0.18248799 0.54894102
0.088209704 0.17887799 0.53744298
0.0946327 0.180077 0.54069197
0.10137 0.181702 0.545192
0.107972 0.182919 0.54844099
0.113983 0.18306001 0.54844099
0.119242 0.18204001 0.54494202
0.124668 0.181361 0.54244202
0.130596 0.18144099 0.54219198
0.136346 0.18127701 0.541192
0.141302 0.180116 0.537193
0.14642601 0.179254 0.53406799
0.151429 0.178315 0.53069299
0.15615299 0.17713 0.52656901
0.16134299 0.17654 0.524194
0.16706 0.176548 0.52356899
0.17315701 0.176944 0.52406901
0.178904 0.17697001 0.523444
0.183911 0.176287 0.52069402
0.18778799 0.174594 0.51494497
0.194004 0.17511199 0.51569498
0.200266 0.175642 0.51644498
0.205826 0.17554601 0.51532
0.212264 0.176184 0.51631999
0.21944501 0.17739099 0.51894498
0.22759099 0.179298 0.52356899
0.235102 0.18062299 0.52644402
0.242834 0.182051 0.52956802
-0.19745301 0.198815 0.571814
-0.188903 0.196362 0.56544
-0.182053 0.195573 0.563815
-0.17510501 0.194622 0.56168997
-0.16818801 0.19364101 0.55944002
-0.16166499 0.19306099 0.55831498
-0.155394 0.19275001 0.55794001
-0.149115 0.192406 0.55743998
-0.14292701 0.192158 0.55719
-0.136728 0.19187599 0.55681598
-0.130376 0.19134501 0.555691
-0.124033 0.19078 0.55444098
-0.118023 0.190697 0.55456603
-0.11202 0.190623 0.55469102
-0.105954 0.190428 0.55444098
-0.100218 0.190841 0.55594099
-0.094627999 0.191605 0.55844003
-0.088892698 0.19216099 0.56031501
-0.083031997 0.19250999 0.56156498
-0.077116698 0.192781 0.56256503
-0.071233101 0.193187 0.56393999
-0.0652676 0.19342899 0.56481498
-0.0591176 0.193121 0.56406498
-0.052576199 0.191324 0.55893999
-0.046585701 0.19133 0.55906498
-0.040803902 0.19232699 0.56206501
-0.034867201 0.192817 0.56356502
-0.0288295 0.19284301 0.56369001
-0.0227597 0.19261999 0.56306499
-0.0166816 0.192146 0.56168997
-0.0106398 0.191808 0.56068999
-0.0046208301 0.191561 0.55993998
0.00137995 0.190851 0.55781502
0.0072346898 0.18749499 0.54794103
0.0130055 0.18594199 0.54331702
0.0187406 0.184993 0.54044199
0.0244628 0.18439201 0.53856701
0.030197799 0.18409701 0.53756797
0.0359409 0.183937 0.53694302
0.041685201 0.183825 0.536443
0.0474687 0.183892 0.536443
0.053320501 0.18417899 0.53706801
0.059275098 0.18473101 0.53844202
0.065387703 0.18563201 0.54081702
0.071823299 0.18722899 0.545192
0.0781487 0.188318 0.54806602
0.084124103 0.188471 0.54819101
0.087935098 0.184073 0.53506798
0.094274402 0.185183 0.53794301
0.100804 0.186518 0.54144198
0.10725 0.18756101 0.54406703
0.113143 0.18757799 0.54369199
0.118494 0.18674 0.54081702
0.124083 0.18634 0.53919202
0.129953 0.18638 0.53881699
0.135611 0.186125 0.53756797
0.140534 0.184925 0.53356802
0.14562599 0.184035 0.53044301
0.150738 0.183238 0.527569
0.15565699 0.182274 0.524194
0.16063701 0.181448 0.52119398
0.166329 0.181456 0.52056903
0.17240199 0.18186601 0.52106899
0.17799599 0.18176299 0.520069
0.181869 0.17996299 0.51419502
0.187048 0.179526 0.51219499
0.193243 0.18006299 0.512945
0.198999 0.180172 0.51244497
0.204373 0.17994 0.51094502
0.211081 0.180865 0.51269501
0.218128 0.182024 0.51507002
0.225373 0.18328799 0.51769501
0.23199099 0.183991 0.518695
0.237866 0.18408699 0.51794499
-0.204695 0.206137 0.57331401
-0.19524001 0.202778 0.56468999
-0.18784299 0.20141099 0.56156498
-0.181025 0.20059501 0.55993998
-0.174264 0.199792 0.55831498
-0.16759899 0.199045 0.55681598
-0.161167 0.198534 0.55594099
-0.154982 0.198301 0.55581599
-0.148816 0.19807801 0.555691
-0.14267001 0.19786499 0.55556601
-0.13648 0.19757199 0.55519098
-0.130078 0.196934 0.55381602
-0.123746 0.19634899 0.55256599
-0.117721 0.196218 0.55256599
-0.111631 0.195963 0.55219102
-0.105536 0.19567101 0.551691
-0.099731699 0.19592001 0.55269098
-0.094126903 0.19662 0.554941
-0.088402197 0.19714899 0.55669099
-0.082591601 0.19755299 0.558065
-0.076740898 0.19792099 0.55931503
-0.070822001 0.198163 0.56019002
-0.064817302 0.198191 0.56044
-0.058654599 0.197696 0.55918998
-0.052216999 0.19606 0.55469102
-0.0463381 0.196376 0.555691
-0.040549502 0.197228 0.55818999
-0.0346785 0.19791 0.56019002
-0.028650999 0.197805 0.55993998
-0.0225996 0.197441 0.55893999
-0.0165627 0.196996 0.55769002
-0.0105643 0.196779 0.55706501
-0.0045826701 0.19674499 0.55694002
0.00139437 0.19627599 0.55556601
0.0072973501 0.19457699 0.55069101
0.013002 0.19147199 0.54181701
0.0187099 0.19031499 0.53844202
0.024416899 0.189695 0.53656799
0.030143799 0.18943501 0.53569299
0.0358564 0.189181 0.53481799
0.041574702 0.189022 0.53419298
0.047373801 0.189224 0.53456801
0.053274199 0.189742 0.53581798
0.059263699 0.19044501 0.53756797
0.065419599 0.19151001 0.540317
0.071758702 0.192893 0.54394197
0.077917702 0.193619 0.54569203
0.0820693 0.189606 0.53406799
0.087582096 0.189059 0.53219301
0.093964003 0.19034 0.53544301
0.100312 0.19140799 0.538068
0.106606 0.19226199 0.54006702
0.112411 0.192191 0.539442
0.117804 0.191459 0.53694302
0.123532 0.191315 0.53606802
0.12940601 0.191401 0.53581798
0.13494401 0.19100399 0.53419298
0.139705 0.189587 0.52969301
0.144693 0.18857799 0.52631903
0.14991 0.18793499 0.52394402
0.154908 0.187075 0.520944
0.15993699 0.186312 0.51819497
0.165765 0.186501 0.51806998
0.171819 0.18692601 0.51857001
0.17718101 0.18659499 0.516945
0.18107 0.184781 0.511195
0.186773 0.184874 0.51069498
0.19258501 0.185067 0.510445
0.197935 0.184818 0.508946
0.203679 0.18494201 0.50844598
0.21001001 0.185579 0.50932097
0.216501 0.18632101 0.510445
0.223434 0.187397 0.51244497
0.22966599 0.187848 0.51269501
0.236633 0.18886399 0.51444501
-0.20144001 0.20905299 0.56344002
-0.194243 0.207904 0.56106502
-0.187125 0.20677 0.55869001
-0.18028601 0.205881 0.55694002
-0.173703 0.205235 0.55581599
-0.16720501 0.204648 0.55481601
-0.16078401 0.204119 0.55394101
-0.154541 0.203784 0.55356598
-0.148491 0.20369101 0.55381602
-0.142516 0.20369899 0.55431598
-0.136453 0.20357899 0.55444098
-0.13004901 0.20291901 0.55306602
-0.123577 0.202085 0.55119097
-0.117477 0.201811 0.550816
-0.111398 0.201546 0.55044103
-0.105169 0.20096999 0.549191
-0.099226199 0.20090599 0.54931599
-0.093607701 0.201535 0.55131602
-0.087974101 0.202218 0.55344099
-0.082209401 0.20268001 0.554941
-0.076367699 0.203012 0.55606598
-0.070444599 0.20317 0.55669099
-0.064412199 0.203016 0.55644101
-0.058206301 0.202232 0.55444098
-0.051906299 0.20090801 0.55094099
-0.046050198 0.201187 0.55181599
-0.0403235 0.20220301 0.55469102
-0.034452099 0.20272399 0.55619103
-0.028441301 0.20247801 0.55556601
-0.0224146 0.201966 0.55419099
-0.0164514 0.20187201 0.55394101
-0.0104959 0.201829 0.55381602
-0.0045443201 0.201885 0.55394101
0.00140957 0.20172 0.55344099
0.00733128 0.20092499 0.55119097
0.0130296 0.197447 0.54156703
0.018693401 0.19575299 0.53681803
0.0243781 0.195022 0.534693
0.030070299 0.194617 0.53344297
0.035773799 0.194401 0.53269303
0.0415149 0.19441999 0.53256798
0.0473588 0.194856 0.53356802
0.053342801 0.195711 0.53569299
0.0594487 0.196803 0.53844202
0.065515697 0.19758201 0.540317
0.071549103 0.19814099 0.54156703
0.077457897 0.19829699 0.54169202
0.081417099 0.19379 0.52906799
0.087376997 0.194325 0.53019297
0.093657702 0.195464 0.53294301
0.0999403 0.196475 0.53531802
0.105942 0.196852 0.53594297
0.111578 0.196549 0.534693
0.117147 0.196162 0.53319299
0.122899 0.196105 0.53256798
0.12886401 0.19637901 0.53281802
0.134409 0.196017 0.53131801
0.13908 0.194463 0.52656901
0.14397199 0.19333 0.52294397
0.149268 0.19280601 0.520944
0.15442599 0.192151 0.51857001
0.15955301 0.191504 0.516195
0.165448 0.19179299 0.51631999
0.17149401 0.192233 0.51682001
0.175602 0.190543 0.51156998
0.180811 0.190117 0.50969601
0.186416 0.19012 0.508946
0.19141699 0.18952601 0.50657099
0.19682901 0.189363 0.50532103
0.20294499 0.189867 0.50582099
0.209052 0.190338 0.50619602
0.214935 0.190586 0.50594598
0.22150099 0.191414 0.50719601
0.22757301 0.19178399 0.50719601
0.235525 0.193683 0.511195
0.24331699 0.195366 0.51457
-0.207304 0.214982 0.56119001
-0.199752 0.213447 0.55794001
-0.193167 0.212883 0.55719
-0.186205 0.21185499 0.55519098
-0.17890599 0.210365 0.55194098
-0.17279799 0.210223 0.55219102
-0.166667 0.210044 0.55231601
-0.16048101 0.20978101 0.55219102
-0.154351 0.20957699 0.55219102
-0.14834 0.209526 0.55256599
-0.14252999 0.20976999 0.55369103
-0.136618 0.20988099 0.55444098
-0.13020401 0.209198 0.55306602
-0.123469 0.207911 0.55006599
-0.117372 0.207627 0.54969102
-0.11127 0.207305 0.549191
-0.104903 0.20642699 0.54719198
-0.098791897 0.205983 0.54631698
-0.093091697 0.206395 0.54769099
-0.087549001 0.207239 0.55019099
-0.081848599 0.207809 0.55194098
-0.075979903 0.20801 0.55269098
-0.070022002 0.207983 0.55281597
-0.0640525 0.207918 0.55281597
-0.057864599 0.20706201 0.55069101
-0.051656101 0.20593201 0.54781598
-0.0458262 0.206219 0.54869097
-0.040116802 0.207219 0.55144101
-0.034226499 0.20747399 0.55219102
-0.0280785 0.205952 0.54819101
-0.0221998 0.206129 0.54869097
-0.0163405 0.206688 0.55019099
-0.0104275 0.20683201 0.55056602
-0.0045057898 0.206983 0.55094099
0.00142492 0.207095 0.55119097
0.0073428298 0.20665 0.549941
0.0131005 0.204099 0.54306698
0.018669499 0.201084 0.53494298
0.024323599 0.20018999 0.53244299
0.0299915 0.199725 0.53106803
0.035701498 0.199644 0.53069299
0.041486599 0.199946 0.53131801
0.04738 0.20063201 0.53294301
0.0534271 0.201749 0.53569299
0.059540801 0.202875 0.53844202
0.065509498 0.20334999 0.539442
0.071293302 0.20321999 0.53881699
0.076893598 0.202626 0.53694302
0.0814225 0.19949099 0.528319
0.087114103 0.19942901 0.52781898
0.0932457 0.200321 0.529818
0.099479601 0.201316 0.53206801
0.105429 0.201658 0.53256798
0.111011 0.201299 0.53119302
0.116604 0.200996 0.52994299
0.122416 0.20107999 0.52969301
0.128298 0.201268 0.52969301
0.13378499 0.200848 0.52806902
0.13836101 0.19915099 0.52306902
0.14336 0.198175 0.51994401
0.148846 0.19792201 0.518695
0.154026 0.197295 0.51644498
0.15917601 0.196677 0.51419502
0.16506 0.196977 0.51432002
0.17105199 0.197384 0.51469499
0.174843 0.195307 0.50857103
0.180473 0.19534899 0.50794601
