# .PCD v0.7 - Point Cloud Data file format
VERSION 0.7
FIELDS x y z
SIZE 4 4 4
TYPE F F F
COUNT 1 1 1
WIDTH 1256
HEIGHT 1
VIEWPOINT 0 0 0 1 0 0 0
POINTS 1256
DATA ascii
-0.036706939 0.0069136368 -0.025621098
-0.034176331 0.0068474957 -0.024561703
0.034395628 0.0076316553 -0.026153265
0.03693762 0.0061569433 -0.025795711
-0.034943681 0.0090987636 -0.026734002
-0.032124594 0.010338283 -0.025665348
0.0318968 0.010444145 -0.025603944
0.033935014 0.0098242816 -0.024370024
-0.030630609 0.014512574 -0.025001453
-0.028936338 0.014478819 -0.025360614
0.02905722 0.014315586 -0.025222514
0.030569883 0.013688666 -0.025156796
-0.027008036 0.016843932 -0.024751274
0.026290372 0.01679131 -0.025022043
0.028417863 0.015896879 -0.02511779
-0.025542561 0.019613456 -0.025314637
0.023931298 0.019410759 -0.025102803
0.026193447 0.019155795 -0.025040761
-0.024173336 0.022458887 -0.024151579
-0.021672836 0.023172481 -0.025735753
0.020071981 0.023522193 -0.025013141
0.022637861 0.022450594 -0.025182305
0.02441969 0.02133844 -0.02482925
-0.022086786 0.02541746 -0.025191976
-0.02077773 0.025592403 -0.025662571
0.020117274 0.025573514 -0.02543631
0.021359714 0.024900863 -0.025403326
-0.021517919 0.028149178 -0.025461677
-0.020370105 0.029003412 -0.025614727
0.019115575 0.028240517 -0.025246343
-0.021166796 0.030731674 -0.026128709
-0.020032795 0.032441605 -0.025496429
0.018950133 0.031371642 -0.025221212
-0.019790525 0.035039626 -0.02591807
0.017969001 0.035277117 -0.024828609
0.01891173 0.03476603 -0.025537033
-0.019616304 0.03771653 -0.025992831
0.017663132 0.037403978 -0.025661606
0.018730069 0.037102725 -0.025198221
-0.019171979 0.040590562 -0.0259133
0.017559107 0.039931715 -0.025535554
0.01820226 0.040168118 -0.025199192
-0.018840587 0.043901935 -0.025849098
0.017567014 0.043895356 -0.025205808
-0.018983269 0.046720017 -0.025727786
-0.017850583 0.046877462 -0.025686705
0.0173603 0.046597738 -0.024892636
-0.018633414 0.049353607 -0.025556395
-0.017592065 0.049820304 -0.025763415
0.01721455 0.049601052 -0.024883067
-0.018099874 0.051237311 -0.025070181
-0.017557779 0.052314613 -0.02516049
0.016123598 0.052292645 -0.025426527
-0.016763372 0.055838563 -0.025491618
0.015325794 0.055471152 -0.025139052
-0.01655579 0.058397118 -0.02544325
0.014801127 0.058458384 -0.025572306
0.015085066 0.057475496 -0.024800718
-0.016428923 0.061635468 -0.025400547
0.01430846 0.06122791 -0.025107158
-0.016150152 0.064143114 -0.025206339
0.013263881 0.064393744 -0.025293432
-0.015123148 0.067793757 -0.024965318
-0.01480784 0.068382725 -0.025588404
0.011876414 0.067848474 -0.025594436
0.012099792 0.067827679 -0.026434315
-0.047103018 -0.067823507 -0.022869708
-0.043163769 -0.068699107 -0.022316124
-0.040564898 -0.068182237 -0.022549167
-0.038652897 -0.066619657 -0.022223039
0.038284123 -0.066694148 -0.022735387
0.040145263 -0.067283407 -0.022460084
0.043137986 -0.067347862 -0.022323821
0.047479406 -0.066593781 -0.022034265
0.048038363 -0.066137649 -0.023335641
-0.045944028 -0.065747619 -0.022972388
-0.043211818 -0.065687932 -0.022266239
-0.036815871 -0.064072758 -0.022518538
0.037513293 -0.065423891 -0.022947114
0.043701753 -0.064897463 -0.021959316
0.047493655 -0.065323196 -0.022015959
0.048042588 -0.065873362 -0.023038344
-0.04272823 -0.060753275 -0.022416921
-0.036179978 -0.06264963 -0.022633597
-0.035879556 -0.061737016 -0.022030337
0.036975536 -0.062255427 -0.022464629
0.043171175 -0.061608613 -0.021954795
-0.042557877 -0.058082711 -0.022718841
-0.035601463 -0.059330951 -0.022874638
0.03645011 -0.058008663 -0.022520639
0.043006126 -0.057860628 -0.022768458
-0.042530026 -0.055601899 -0.021966409
-0.035196561 -0.055480532 -0.022794709
0.03594809 -0.054898825 -0.023609798
0.036076009 -0.055072311 -0.021684481
0.042792939 -0.054768395 -0.022899475
-0.035174575 -0.052299846 -0.022681832
0.035748828 -0.052712645 -0.02247542
0.042632237 -0.05229871 -0.022926023
-0.042285539 -0.048624519 -0.022327345
-0.035448823 -0.04944963 -0.022698807
0.035577636 -0.049140241 -0.022567661
0.04246999 -0.049776409 -0.022780739
-0.042225406 -0.046809185 -0.02211361
-0.035564944 -0.046964891 -0.022682058
0.035750996 -0.046800788 -0.022877382
0.042264555 -0.046870645 -0.022222698
-0.042056084 -0.042902157 -0.023255726
-0.03551238 -0.044170428 -0.022493966
0.035655849 -0.04385592 -0.023184083
0.042091489 -0.044138629 -0.021891227
-0.042045973 -0.041313373 -0.021308558
-0.035393737 -0.040887229 -0.022775276
0.035440739 -0.040792421 -0.022526361
0.041923352 -0.040148836 -0.022984246
-0.041885734 -0.037234422 -0.022756761
-0.035302252 -0.036941521 -0.022894157
0.03501901 -0.037272647 -0.022538168
0.041793689 -0.037605088 -0.022267988
-0.041836288 -0.035470169 -0.022160551
-0.035284098 -0.035048783 -0.02194711
0.034810781 -0.034975164 -0.021606373
0.041666485 -0.034558944 -0.022105737
-0.041732412 -0.031168511 -0.021158688
-0.035149232 -0.032381579 -0.022856429
0.034760542 -0.031211428 -0.02338881
0.041572683 -0.03147351 -0.023226768
-0.035049692 -0.028859498 -0.022223717
0.034716625 -0.029139392 -0.021903759
0.041438106 -0.028366981 -0.022139804
-0.03492225 -0.025177391 -0.022455251
0.034586817 -0.025792051 -0.022236411
0.0413265 -0.025378209 -0.02233547
-0.034827545 -0.022845332 -0.02270101
0.034413539 -0.022481173 -0.022475788
0.041200127 -0.022033717 -0.022691589
-0.034701332 -0.020248387 -0.023088748
0.034412414 -0.019819103 -0.021643495
0.041126963 -0.01975666 -0.022800075
-0.034679592 -0.016847093 -0.022025213
0.034262914 -0.016811009 -0.022499681
0.041018624 -0.0161839 -0.023253595
-0.041305047 -0.014332341 -0.021885632
-0.034526132 -0.013085952 -0.022484824
0.034263052 -0.013613265 -0.023583638
0.040906612 -0.013292488 -0.022806725
-0.034281604 -0.010805009 -0.022792222
0.034484997 -0.010177986 -0.021965647
0.040845618 -0.011488369 -0.023010731
-0.034256496 -0.0074200318 -0.022424504
0.034766376 -0.0074677095 -0.022826973
0.040688261 -0.0071236566 -0.022018649
-0.041220699 -0.0047375294 -0.021397192
-0.034706432 -0.0042802528 -0.022221111
0.034948952 -0.0054698661 -0.023515062
0.04044899 -0.0045651239 -0.022846041
-0.040907126 -0.0018899478 -0.022395918
-0.035098881 -0.0019421992 -0.023166815
0.035206661 -0.00060338795 -0.021629615
0.040160008 -0.0014762629 -0.022662628
-0.040059295 0.0014113769 -0.023382971
-0.036643043 0.002338801 -0.022152867
0.03526843 0.0017390399 -0.022214847
0.038901117 0.0027669857 -0.023323031
0.039273556 0.0017484189 -0.021324303
-0.039354455 0.003012894 -0.023890208
-0.036327239 0.0037809915 -0.021673102
-0.034955226 0.005834403 -0.021780986
0.034798525 0.0040480723 -0.022304486
0.037708383 0.0049093268 -0.022415929
-0.033821095 0.0075848699 -0.02207656
0.032159906 0.0086172214 -0.021634944
0.034348447 0.0071310503 -0.023402737
0.036888752 0.0061468906 -0.022573719
-0.032022908 0.010599923 -0.0228748
0.031743906 0.010996279 -0.02221703
0.033566914 0.010214441 -0.022272604
-0.030990006 0.014137021 -0.022088574
0.029103462 0.01401282 -0.022302989
0.030695792 0.013635426 -0.022879319
-0.028580552 0.017137252 -0.023859227
-0.026901657 0.016892197 -0.021398718
0.026555011 0.016376982 -0.021857193
0.028516989 0.016278071 -0.022868905
-0.026055029 0.019423595 -0.021863708
0.025808586 0.019225381 -0.021917006
-0.024430502 0.022095954 -0.021840684
-0.022204971 0.022916686 -0.022301475
-0.020927332 0.023894379 -0.022589093
0.019988321 0.023408605 -0.022149859
0.022049082 0.022052951 -0.022019409
0.024335053 0.021357164 -0.022815032
-0.022082586 0.025520058 -0.022747103
-0.0206021 0.025006367 -0.02199435
0.019992288 0.025616726 -0.02248716
0.021392873 0.024884067 -0.022734921
-0.021482058 0.028297994 -0.023241039
-0.02014081 0.029488798 -0.022643767
0.019182295 0.028185071 -0.022685232
-0.020562615 0.032152619 -0.022744479
0.018728731 0.031528164 -0.022808164
-0.019763822 0.035558529 -0.022782551
0.017831821 0.03461894 -0.021676689
0.018551763 0.034595441 -0.023105796
-0.019488305 0.038287897 -0.02247772
0.017639797 0.037261777 -0.022953268
0.018556552 0.037561163 -0.023016449
-0.01882601 0.041122634 -0.022461435
0.01725179 0.040346809 -0.022048246
0.018122336 0.040013716 -0.022993339
-0.018537847 0.043840609 -0.022688111
-0.017897043 0.044008814 -0.021302588
0.017261343 0.043880533 -0.02262421
-0.01861082 0.04648279 -0.023114391
-0.017727874 0.046766181 -0.022020886
0.016930971 0.046618965 -0.023108695
-0.018192489 0.049367491 -0.023261162
-0.017501099 0.049478564 -0.022273438
0.016428214 0.049947046 -0.022762576
-0.018001081 0.05115509 -0.02397809
-0.01737006 0.05217167 -0.022420011
0.01573641 0.05257782 -0.022837935
-0.016566513 0.055762038 -0.022732366
0.014801192 0.056291986 -0.021779541
0.015191059 0.055494394 -0.022861149
-0.016240533 0.058228336 -0.022684211
0.014638458 0.058342963 -0.022432974
0.015089385 0.057316601 -0.023891306
-0.015809489 0.06153651 -0.022424275
0.014077238 0.061283719 -0.022233669
-0.015585216 0.064544372 -0.023005588
-0.014939462 0.064751267 -0.021566616
0.012831407 0.064805567 -0.02192481
-0.015128442 0.067583017 -0.023185708
-0.014760346 0.068422712 -0.022712164
0.011520435 0.067680568 -0.021936968
0.012033959 0.067100398 -0.021913076
-0.047125082 -0.067233622 -0.019343432
-0.043497998 -0.068729565 -0.018980425
-0.040583514 -0.06829533 -0.019441059
-0.038553756 -0.066686712 -0.019186029
0.038495474 -0.066783771 -0.019238563
0.039681934 -0.067302004 -0.019413585
0.043578237 -0.06742885 -0.0190334
0.047564544 -0.066469662 -0.019585175
-0.046616711 -0.065848663 -0.019339368
-0.043299664 -0.065695204 -0.019768499
-0.036750153 -0.06403508 -0.019324336
0.037512239 -0.064832643 -0.019169228
0.043616813 -0.064776108 -0.019420203
0.047527745 -0.065419786 -0.019465679
-0.042865351 -0.062162973 -0.019368887
-0.036085613 -0.062642515 -0.019249437
-0.035735343 -0.061307445 -0.019461315
0.036850445 -0.060959455 -0.020158248
0.043083981 -0.061636992 -0.019138942
-0.042635553 -0.058328081 -0.020335482
-0.035433453 -0.058247693 -0.019358244
0.036525276 -0.058442116 -0.019337388
0.042906143 -0.057313841 -0.020459434
-0.04256836 -0.054898761 -0.019555002
-0.035336468 -0.055493508 -0.019432824
0.036274556 -0.055844545 -0.019095533
0.042834006 -0.056914568 -0.018728411
-0.042451985 -0.052138876 -0.020564321
-0.035367772 -0.0522594 -0.019075468
0.035925101 -0.052849557 -0.020332165
0.036040671 -0.053009573 -0.018189684
0.042580031 -0.052953184 -0.019653741
-0.042407408 -0.049928404 -0.018756006
-0.035553813 -0.049308628 -0.019373648
0.03575987 -0.04948106 -0.019559193
0.042346545 -0.04889413 -0.020155262
-0.042264141 -0.045581087 -0.018445725
-0.035761077 -0.047012974 -0.018870538
0.035881497 -0.047300044 -0.019631501
-0.042188965 -0.04469284 -0.020047951
-0.035742845 -0.044070125 -0.019395167
0.035614632 -0.043166969 -0.019655874
-0.042052008 -0.039980136 -0.018864691
-0.03564246 -0.040523499 -0.018892258
0.035306767 -0.040752549 -0.019154888
-0.042007886 -0.038123187 -0.018012902
-0.041915752 -0.036760163 -0.020304235
-0.035531063 -0.037832201 -0.019420382
0.035057455 -0.037696242 -0.019187018
0.041727472 -0.03728421 -0.019713534
-0.041835822 -0.033874404 -0.019710815
-0.035454653 -0.034809757 -0.019119132
0.034838796 -0.034628987 -0.019279093
0.04165763 -0.035381291 -0.01995777
-0.041811544 -0.031875718 -0.018743735
-0.035270024 -0.031813186 -0.020175286
0.034731682 -0.031315129 -0.018941866
0.041513536 -0.031612433 -0.020069281
-0.041727796 -0.029206131 -0.018703014
-0.035180405 -0.027166756 -0.01903067
0.034592163 -0.027937511 -0.019584268
0.04135441 -0.028080607 -0.018973837
-0.041597471 -0.025900543 -0.019885004
-0.035089523 -0.024553865 -0.019138815
0.034521814 -0.025866568 -0.019787939
0.04124736 -0.025456371 -0.018933646
-0.041509394 -0.021879651 -0.019164287
-0.035017118 -0.022464277 -0.019452095
0.034472011 -0.022902498 -0.019609667
0.041136116 -0.02201464 -0.01978353
-0.041448716 -0.019140089 -0.019734599
-0.034903258 -0.020242 -0.020470941
0.034477476 -0.019392788 -0.019403378
0.0410458 -0.01980534 -0.019384058
-0.041391723 -0.017043231 -0.020131094
-0.03490708 -0.015721597 -0.018971626
0.034228545 -0.016485306 -0.019569034
0.040963307 -0.0170031 -0.020101037
-0.034818649 -0.013268743 -0.01958847
0.034030497 -0.013819155 -0.019205706
-0.041360144 -0.011228098 -0.01823033
-0.034634322 -0.010579893 -0.019123718
0.034197807 -0.010540721 -0.018577201
0.040725268 -0.010824471 -0.019310372
-0.041296739 -0.0081684124 -0.019795982
-0.034723714 -0.0073414156 -0.018470602
0.034601595 -0.0066862842 -0.019397255
0.040603496 -0.0071036685 -0.019023372
-0.03498292 -0.0041873604 -0.019648073
0.034688201 -0.0050489991 -0.018562274
0.040491872 -0.0053826012 -0.019939747
-0.040986214 -0.0014853054 -0.018497538
-0.035383049 -0.0017767519 -0.020397196
0.035048004 -0.0013223824 -0.019089306
0.04011222 -0.0014202184 -0.020088168
-0.040152911 0.0014330484 -0.019138543
-0.036797769 0.0021742631 -0.019220237
0.035274368 0.0022150122 -0.019206278
0.038902238 0.0026136762 -0.020269426
0.0397075 0.00050078845 -0.018942878
-0.039377932 0.0032456559 -0.0196987
-0.036769949 0.0035566634 -0.019433627
-0.035268154 0.0055610789 -0.019088842
0.03507163 0.0036157633 -0.019532405
0.037913438 0.0044160206 -0.019355027
-0.034634124 0.0079187481 -0.019172307
0.032626882 0.0078075323 -0.020457145
0.035110407 0.0076644621 -0.019656321
0.036546268 0.0064718947 -0.019508986
-0.034050103 0.010412987 -0.01970759
-0.032291021 0.010247122 -0.01985904
0.029868588 0.011802875 -0.019215332
0.031222934 0.010741502 -0.019534081
0.033763006 0.0098859118 -0.019581098
-0.031111142 0.013282827 -0.01926893
-0.028858803 0.0145687 -0.019654881
0.028735394 0.013419026 -0.019425485
0.031263445 0.012831836 -0.019770963
-0.029106498 0.016447462 -0.0193252
-0.026713524 0.016977947 -0.018627835
0.026715502 0.015992392 -0.019495072
0.028312245 0.01632956 -0.018939493
-0.026546253 0.01920756 -0.019204954
0.023067471 0.019885633 -0.019329634
0.025310069 0.018986527 -0.020017494
-0.024144102 0.022207435 -0.019457908
-0.021947632 0.022765614 -0.020163007
-0.020574236 0.023282103 -0.018940678
0.019709721 0.023224631 -0.019353988
0.022347758 0.021872181 -0.019808233
0.024229748 0.02131418 -0.0208262
-0.021534089 0.02550254 -0.019596044
-0.020018242 0.024960058 -0.019225659
0.019552268 0.025463643 -0.019567028
0.021306491 0.024417743 -0.019975509
-0.021177173 0.028620077 -0.020970473
-0.020340921 0.028512692 -0.01909647
0.017771693 0.028881354 -0.018165048
0.019390039 0.027996302 -0.019738629
-0.019728167 0.032158799 -0.019739401
0.017476758 0.03220576 -0.018839791
0.018797176 0.030975508 -0.020029919
-0.018693194 0.035057914 -0.01966705
0.017698616 0.035261929 -0.019395921
0.018532949 0.035133298 -0.020295175
-0.019046659 0.038020544 -0.019774346
-0.017720209 0.037677314 -0.018284179
0.017217111 0.036974292 -0.020307021
-0.018204238 0.04001537 -0.020280739
-0.017763872 0.040793005 -0.019538924
0.017173832 0.040179633 -0.01942021
-0.018189399 0.043682754 -0.020498287
-0.017290857 0.043683115 -0.01910129
0.01669756 0.043687787 -0.019925497
-0.017018501 0.046717804 -0.019747496
0.015938504 0.046395969 -0.01935832
-0.016790146 0.04938481 -0.020165171
0.014959508 0.050287675 -0.018070312
0.015430391 0.049231507 -0.019520596
-0.016803605 0.052348193 -0.019897664
0.014745898 0.052542098 -0.018934926
0.015261841 0.052431431 -0.020563658
-0.016154049 0.055929542 -0.020054132
-0.014754049 0.054625869 -0.018078426
0.014465732 0.055373617 -0.019794205
-0.01558839 0.058244985 -0.020142134
-0.014874877 0.057617184 -0.019281115
0.013963614 0.058316309 -0.019931166
-0.015393374 0.061048348 -0.019792538
-0.014499454 0.061659403 -0.018732734
0.013188951 0.062228218 -0.019604867
-0.014353573 0.064299121 -0.019922728
0.01186887 0.06564258 -0.018352635
0.012435064 0.064844742 -0.019466693
-0.014054701 0.068768911 -0.020194285
0.011112419 0.067834973 -0.019633763
0.012229145 0.066167742 -0.019954354
-0.01340926 0.06908831 -0.018827885
-0.047441084 -0.067030028 -0.01662802
-0.042863682 -0.06861572 -0.016856311
-0.040280044 -0.068059959 -0.016694183
-0.038572855 -0.066727124 -0.016196741
0.038380772 -0.066697836 -0.016285017
0.039654009 -0.067271963 -0.01691868
0.043937229 -0.067336597 -0.016758861
0.047484662 -0.066396661 -0.016491216
-0.046531312 -0.065825306 -0.016390417
-0.043243792 -0.065616019 -0.016260577
-0.037101049 -0.064483128 -0.01604294
0.037549872 -0.064905263 -0.016501434
0.04352304 -0.064841665 -0.016536403
0.047457531 -0.065350242 -0.016370997
-0.042830877 -0.060439847 -0.017416766
-0.03624187 -0.062295046 -0.016435558
-0.035885356 -0.060510322 -0.016221065
0.036965337 -0.061157357 -0.016143052
0.043031801 -0.061962552 -0.016542803
-0.042778566 -0.058685448 -0.016501101
-0.035704054 -0.058310568 -0.016098509
0.036556017 -0.058279239 -0.016482297
-0.035506088 -0.055485398 -0.017272027
0.036329404 -0.056109559 -0.017200524
0.042653278 -0.055508334 -0.015411519
-0.035503212 -0.052137733 -0.016731706
0.036135178 -0.053331722 -0.016143588
0.042461798 -0.052181017 -0.016118832
-0.042474121 -0.050654236 -0.017100876
-0.035687007 -0.049448345 -0.016947318
0.035871115 -0.048981667 -0.016530937
0.036051877 -0.050751768 -0.015461483
0.042292047 -0.049069185 -0.016738158
-0.042346224 -0.046578716 -0.016082326
-0.036030341 -0.045485839 -0.016084652
-0.035909932 -0.046090465 -0.017347271
0.035921287 -0.046780474 -0.017174514
0.036039252 -0.04750526 -0.015268303
0.042110533 -0.045892149 -0.017109508
-0.042211711 -0.042240739 -0.015100022
-0.036026552 -0.044254195 -0.015944835
-0.035895701 -0.043549743 -0.017215308
0.035687495 -0.043131847 -0.016017733
0.041953005 -0.0427914 -0.017191464
-0.04213484 -0.040806521 -0.016113406
-0.035811774 -0.041191466 -0.016924258
0.03538505 -0.040620457 -0.016915634
0.041813921 -0.039972823 -0.01723397
-0.041982166 -0.03655155 -0.016638519
-0.035723679 -0.038176015 -0.016562313
0.03512992 -0.037508875 -0.016510366
0.041714683 -0.037843142 -0.017356418
-0.041911412 -0.034136921 -0.016390601
-0.035598829 -0.034431774 -0.016655274
0.03490838 -0.034694504 -0.01679438
0.041570637 -0.035113513 -0.015596481
-0.041829344 -0.031700145 -0.017162524
-0.035498764 -0.031466745 -0.016456533
0.034789167 -0.031454895 -0.015763864
0.041497637 -0.032466982 -0.017943818
-0.041743871 -0.02884998 -0.016555578
-0.03538746 -0.028743368 -0.016666315
0.03470429 -0.027780082 -0.016729951
0.041306183 -0.028335555 -0.016426861
-0.041645959 -0.025411727 -0.01686514
-0.035267681 -0.025764043 -0.016675135
0.034691405 -0.025800029 -0.016357416
0.041192815 -0.026233532 -0.015318094
-0.04158812 -0.022347767 -0.01597354
-0.03518068 -0.022448523 -0.016747918
0.03461716 -0.022280322 -0.017160991
0.041086968 -0.022312805 -0.017080218
-0.041527428 -0.018758649 -0.015161598
-0.035127245 -0.019495279 -0.016433731
0.034476794 -0.01929057 -0.016133051
0.040959429 -0.019169439 -0.016710686
-0.041480102 -0.016912999 -0.015806608
-0.035085697 -0.017352946 -0.015932832
0.034197368 -0.015995689 -0.01655286
0.040898852 -0.017184509 -0.017291289
-0.041429803 -0.014603401 -0.016494997
-0.035044659 -0.013802975 -0.015908955
0.033961393 -0.013669599 -0.017152376
0.04077692 -0.01358032 -0.016959563
-0.034786295 -0.0099565536 -0.016538093
0.03409142 -0.010714897 -0.016661776
0.040619925 -0.0097597316 -0.016045157
-0.034965478 -0.0073487312 -0.015810711
0.034405563 -0.0072600255 -0.016382437
0.040567406 -0.008446889 -0.015345139
-0.035153814 -0.0046471218 -0.016721314
0.034621485 -0.0050547514 -0.017187543
0.040318012 -0.004706258 -0.017145319
-0.035548743 -0.0019455117 -0.017520908
0.034938347 -0.0016147966 -0.016929854
0.040016122 -0.0013835542 -0.0164153
-0.039846122 0.0024040164 -0.016570695
-0.036971144 0.001980399 -0.016084025
0.035257258 0.0018614042 -0.017278137
0.039488494 0.0010567807 -0.016367961
-0.039348636 0.0035107075 -0.015527248
-0.037167519 0.003985845 -0.016251232
-0.035424054 0.0054668626 -0.016184865
0.03506846 0.0039095348 -0.016480582
0.037666868 0.0047148317 -0.016482932
-0.037110817 0.0066798939 -0.017298654
-0.033867545 0.0078552226 -0.016513163
0.032770243 0.0079687024 -0.015297636
0.034765627 0.0078239683 -0.016502777
-0.03449966 0.0099310279 -0.015609427
-0.031158714 0.01170741 -0.017250134
0.029860787 0.011766963 -0.016821902
0.030984882 0.010650507 -0.016386615
0.033090588 0.010546306 -0.015223223
-0.0316514 0.013317777 -0.016201507
-0.028606992 0.014666604 -0.016530301
0.028889712 0.013587759 -0.016726846
0.03034937 0.013762268 -0.016614126
-0.029265923 0.016125977 -0.01610752
-0.026365938 0.017073702 -0.015862282
0.026402423 0.016034167 -0.017201748
0.027898779 0.016597319 -0.016166197
-0.02605873 0.019355074 -0.016931374
0.023487037 0.018955592 -0.01637359
0.025549877 0.01932322 -0.01629119
-0.022058617 0.021888124 -0.016525414
-0.019780656 0.023335876 -0.016437592
0.01897276 0.023115436 -0.016456038
0.02191253 0.022981439 -0.01611756
0.024151949 0.021040881 -0.017370282
-0.021844724 0.024108876 -0.016799543
-0.019947208 0.025359552 -0.016524065
0.017789897 0.025335556 -0.016538331
0.019406212 0.025626693 -0.016943725
-0.019604625 0.028511101 -0.017001724
-0.017830215 0.029237578 -0.015661374
0.016976628 0.028582741 -0.015599038
0.01859992 0.027842557 -0.016415237
-0.019353986 0.031884089 -0.016620981
0.016978826 0.031079911 -0.016032778
0.018401561 0.030318331 -0.016998162
-0.017468445 0.034741484 -0.016846525
0.016999464 0.034644768 -0.017165272
-0.018258754 0.037980311 -0.016630005
0.016299192 0.038234383 -0.016285263
-0.016663238 0.040703438 -0.016473474
0.015882092 0.04043876 -0.016019206
-0.016142519 0.043506496 -0.016429339
-0.014954024 0.044264656 -0.015120855
0.014798193 0.044383809 -0.015299163
0.015543004 0.043221612 -0.016360832
-0.01584691 0.046615884 -0.016934957
-0.014670349 0.047206715 -0.015525053
0.014550056 0.046367597 -0.01614606
0.015365601 0.045857761 -0.016879808
-0.015701469 0.050098971 -0.016645174
-0.014967841 0.048507042 -0.016494244
0.014206104 0.04880552 -0.016704485
-0.015835341 0.053166587 -0.017320756
-0.014278897 0.052071724 -0.0158018
0.013677757 0.05235 -0.016588347
-0.015399743 0.055500086 -0.01715312
-0.013542553 0.055514146 -0.015764698
0.011755539 0.056656502 -0.015444202
0.0129265 0.055238441 -0.016368236
-0.015223416 0.057926733 -0.017778203
-0.013592837 0.058621202 -0.015994702
0.011599022 0.059024002 -0.015703814
0.012544243 0.058344591 -0.016881073
-0.013136711 0.061569419 -0.015993023
0.011402281 0.061941694 -0.016158178
0.012081788 0.062775515 -0.017369023
-0.012920843 0.064456798 -0.015958516
-0.011626586 0.064663038 -0.015357625
0.011074156 0.064805999 -0.016694115
0.012160271 0.064046428 -0.017763475
-0.012597938 0.067958415 -0.016766544
-0.011332029 0.068024546 -0.015689963
0.008688285 0.067577519 -0.015404838
0.0098934118 0.067548729 -0.016704435
-0.012430379 0.069254965 -0.017238019
-0.011366167 0.069337949 -0.015870685
-0.047625285 -0.067167014 -0.013565716
-0.042723786 -0.068516634 -0.013526043
-0.040397525 -0.068048067 -0.013377255
-0.03846718 -0.066631913 -0.013190107
0.038588122 -0.066907398 -0.013809236
0.039508723 -0.067308716 -0.013327273
0.043566797 -0.067209683 -0.013855124
0.047603294 -0.066329852 -0.013540853
-0.046415064 -0.065810688 -0.013912016
-0.043355692 -0.065676242 -0.013786082
-0.037183229 -0.064524606 -0.01342856
0.037702791 -0.065144002 -0.013597017
0.043545328 -0.06466227 -0.013577033
0.0474068 -0.065307833 -0.013395496
-0.04298358 -0.062329978 -0.013102325
-0.036420174 -0.062127598 -0.013220299
0.037063126 -0.061245836 -0.013999172
0.042954363 -0.061386108 -0.01359343
-0.042860217 -0.058968667 -0.012646127
-0.036231674 -0.058158409 -0.012036535
-0.035994481 -0.058742855 -0.01408148
0.03678048 -0.059268564 -0.01356322
-0.042677198 -0.055034459 -0.014617179
-0.035865437 -0.05539912 -0.013335411
0.036422141 -0.055341154 -0.014133173
0.042651456 -0.056085501 -0.013596869
-0.042582087 -0.05139057 -0.012720056
-0.035681106 -0.052630063 -0.012931488
0.036221322 -0.051817987 -0.01320855
0.042356256 -0.051567368 -0.012944342
-0.036111172 -0.0487152 -0.012672549
-0.035813179 -0.050024312 -0.013892136
0.035971776 -0.049354091 -0.014343367
0.036052205 -0.049309492 -0.01317123
0.042247191 -0.049411394 -0.013316702
-0.042391501 -0.046970464 -0.01376069
-0.036302462 -0.046584863 -0.013286429
0.03597945 -0.045656271 -0.013160873
0.03607421 -0.047237292 -0.01326505
0.042080555 -0.046530925 -0.013532218
-0.042233404 -0.042706609 -0.013855143
-0.03629382 -0.043656219 -0.013415375
0.03581804 -0.043507174 -0.013671016
0.041958675 -0.044379916 -0.01329231
-0.042155717 -0.040314149 -0.013943309
-0.036032647 -0.041597608 -0.014304238
0.035601765 -0.040457387 -0.014687524
0.041815337 -0.041506935 -0.01264029
-0.042086042 -0.038110211 -0.013384769
-0.036113199 -0.038219899 -0.012576789
-0.035843719 -0.038063791 -0.014792943
0.035363819 -0.037314795 -0.01368727
0.041604541 -0.036453247 -0.014465785
-0.042005673 -0.035775919 -0.013324064
-0.041960999 -0.034008313 -0.013211131
-0.035855886 -0.034149371 -0.013086313
0.035128243 -0.034814768 -0.013508344
0.04143551 -0.033657171 -0.012238207
-0.041886583 -0.031842038 -0.013689195
-0.035700213 -0.031038243 -0.013259099
0.035082307 -0.032090019 -0.013341337
0.041366268 -0.031464331 -0.013334216
-0.041822568 -0.029391281 -0.013094185
-0.03561366 -0.028789468 -0.013392111
0.041275144 -0.02872489 -0.014702773
-0.04170863 -0.025386585 -0.01367204
-0.035505667 -0.02586755 -0.013365844
0.034953337 -0.025732664 -0.012725636
0.041126214 -0.024819 -0.014962363
-0.041608848 -0.021408604 -0.013521921
-0.035389461 -0.022002513 -0.012839429
0.034711305 -0.022094935 -0.012846649
0.041032054 -0.022559036 -0.014368261
-0.035250138 -0.018918827 -0.013731178
0.034549184 -0.019288179 -0.013727926
0.040876374 -0.019031454 -0.013514244
-0.041510746 -0.017713033 -0.014979699
-0.035207521 -0.017089514 -0.013614098
0.034390375 -0.01647074 -0.013398867
0.040816948 -0.017201647 -0.013727796
-0.035164345 -0.013313067 -0.013413153
0.034081619 -0.013204 -0.013563796
0.040639672 -0.012776663 -0.012178279
-0.041473765 -0.010464082 -0.012498182
-0.034936111 -0.010821247 -0.013651678
0.03412481 -0.010981158 -0.013080984
0.040593356 -0.010611583 -0.013558245
-0.041411795 -0.0062711686 -0.013983702
0.034405433 -0.0081356438 -0.012510997
0.040487599 -0.0071624829 -0.01352099
-0.041359562 -0.0042816708 -0.014007574
-0.035342246 -0.0040620132 -0.01464334
0.034554821 -0.0058399993 -0.012892527
0.040274002 -0.0051450552 -0.012603084
-0.040992495 -0.0012297007 -0.014375236
0.034797266 -0.0027701282 -0.013455138
0.039942782 -0.0012606898 -0.013522993
-0.040154543 0.0017462804 -0.014876004
-0.037140355 0.0016277536 -0.01267752
0.035258379 0.0019525485 -0.013515878
0.038734999 0.0025053252 -0.012324054
0.039603986 0.0005003605 -0.013646648
-0.036496203 0.0040335963 -0.013765804
-0.035609446 0.0053257858 -0.013260818
0.035063501 0.003992178 -0.01354205
0.03786264 0.0043779779 -0.01405842
-0.036763057 0.0072303773 -0.013588131
-0.034403741 0.0081776716 -0.013389848
0.032363519 0.008541245 -0.013848064
0.034245875 0.0073258975 -0.013211591
0.036507141 0.0064273807 -0.013669579
-0.03420756 0.01030637 -0.013130255
-0.032100022 0.010484423 -0.014059986
0.031410854 0.011111773 -0.0129844
0.033985116 0.0095012039 -0.014744934
-0.031705067 0.013199249 -0.013690941
-0.028202396 0.014820998 -0.012639538
0.026996136 0.014959433 -0.014438605
0.02861541 0.01360936 -0.013661574
0.030879911 0.012981956 -0.013348325
-0.028703107 0.016582374 -0.013577684
-0.02585125 0.017183252 -0.013125943
0.026556676 0.017397817 -0.013485772
0.027982248 0.016275855 -0.01352243
-0.027173476 0.018256854 -0.013615908
-0.025441462 0.019941313 -0.013272583
-0.022774428 0.019944735 -0.01314465
0.020932825 0.02043915 -0.01246174
0.022873867 0.020261757 -0.013559643
0.025457645 0.018967414 -0.013388528
-0.022311855 0.02291039 -0.013665058
-0.01935973 0.022770498 -0.013876796
-0.017174669 0.023783199 -0.012209756
0.017032431 0.023588629 -0.013096381
0.019416275 0.021931969 -0.013971846
0.021792479 0.022446614 -0.013460722
-0.021030895 0.024272971 -0.014716228
-0.019222626 0.025484422 -0.013478803
-0.017212737 0.025227217 -0.013445037
0.01677217 0.025554445 -0.013035457
0.01850169 0.025431193 -0.013955252
-0.018817844 0.028135773 -0.01427423
-0.01659503 0.02894422 -0.01303933
0.01605868 0.028531257 -0.013147105
-0.018381547 0.031792246 -0.014626311
-0.01608203 0.031408262 -0.012915069
0.014642979 0.032172274 -0.012456228
0.015729781 0.031043189 -0.013416262
-0.018074311 0.033448722 -0.014615895
-0.01614555 0.034256727 -0.014232809
-0.014820761 0.034135289 -0.012184867
0.014294222 0.034298651 -0.012370469
0.015660428 0.034440681 -0.01438048
-0.015797876 0.037700582 -0.013725737
-0.014421782 0.037448872 -0.012527014
0.014212339 0.03648809 -0.013119847
-0.016194804 0.04066078 -0.013837979
-0.013930676 0.041126061 -0.012719796
0.013620577 0.040101472 -0.01314339
0.015192016 0.039536141 -0.014349972
-0.015397211 0.044027731 -0.013626073
-0.013766198 0.043409217 -0.012794921
0.013280427 0.043364652 -0.013415067
-0.015295297 0.046421178 -0.014150416
-0.013883294 0.046714567 -0.012781838
0.011726086 0.046460465 -0.012292127
0.012633741 0.046407383 -0.013143133
-0.015187095 0.048473507 -0.014678634
-0.013904904 0.049423054 -0.012885102
-0.011588829 0.049352281 -0.0123195
0.011719732 0.050267838 -0.012376253
0.012220387 0.049224749 -0.012903087
-0.012983462 0.052326214 -0.013653806
-0.011372476 0.053002268 -0.012715834
0.011151195 0.052192777 -0.012947709
0.012245066 0.051634312 -0.014136585
-0.012532873 0.05527607 -0.014063202
-0.011129194 0.055376668 -0.012937758
0.0086399866 0.056850139 -0.013001351
0.010927136 0.05571698 -0.013977232
0.012381534 0.054048505 -0.014926051
-0.012601739 0.058458142 -0.014394497
-0.011055167 0.058587149 -0.013382155
-0.0087220334 0.059193593 -0.012194864
0.008500454 0.05874024 -0.012588314
0.010563915 0.058924541 -0.014250184
-0.012384623 0.061782766 -0.014411998
-0.011132061 0.06152546 -0.013864626
-0.008209208 0.062899619 -0.012609174
0.0079340674 0.062567033 -0.013259883
0.0098796878 0.062050365 -0.014419002
-0.012226069 0.064505965 -0.014444058
-0.010984714 0.064675197 -0.014095285
-0.0076761809 0.064621247 -0.012355247
-0.0051691816 0.065711789 -0.012137203
0.0052527809 0.06541951 -0.012163786
0.0073163901 0.065014087 -0.013181231
0.0096166814 0.064946391 -0.014610616
-0.012061765 0.066437036 -0.014641814
-0.010584509 0.067547187 -0.014350909
-0.0075903586 0.067729495 -0.013016832
-0.0048496556 0.068125106 -0.012721244
-0.0012441848 0.068474822 -0.012582126
0.0023515541 0.068698771 -0.012485958
0.0046203858 0.068133883 -0.01284029
0.0070323879 0.067646392 -0.013991631
0.0095147323 0.066250995 -0.014942547
-0.0097147627 0.069533564 -0.01423808
-0.0073321266 0.069655232 -0.013276803
-0.0048692022 0.069479205 -0.013134992
-0.00131764 0.069426291 -0.012898808
0.00089515524 0.069174401 -0.012694594
-0.04801761 -0.067006856 -0.010172199
-0.047683224 -0.067157321 -0.010155913
-0.042645417 -0.068452738 -0.010111287
-0.040572204 -0.06808126 -0.010369714
-0.038367145 -0.066564672 -0.010513556
0.038324762 -0.066461079 -0.01051682
0.039672561 -0.067234859 -0.010751301
0.043783098 -0.067125075 -0.010170526
0.047452349 -0.066428632 -0.010884662
-0.046510752 -0.065710351 -0.010644556
-0.043535627 -0.065646119 -0.010570492
-0.037386876 -0.064850479 -0.010592395
0.037809264 -0.065375201 -0.010419055
0.043380227 -0.06431064 -0.010501245
0.047524806 -0.065297268 -0.010898257
-0.043057177 -0.062457625 -0.0099692307
0.0370019 -0.060503207 -0.010926307
0.042890929 -0.061669514 -0.010611278
-0.036406629 -0.058098871 -0.010414645
0.036804222 -0.058171861 -0.010152113
0.042810082 -0.059966635 -0.0091884416
-0.036027849 -0.055136826 -0.01008531
-0.035901032 -0.05464071 -0.010592798
0.036585048 -0.055453476 -0.010465972
0.042525519 -0.055217337 -0.010460884
-0.04264953 -0.051904175 -0.0095280269
-0.036074713 -0.052119557 -0.009133067
-0.035803575 -0.05244378 -0.010693469
0.036391817 -0.052730571 -0.010389647
0.04229717 -0.051409785 -0.010475193
-0.042545415 -0.050025824 -0.011998177
-0.036262028 -0.048920281 -0.010946929
0.036147099 -0.049412582 -0.011028641
0.042198204 -0.049455408 -0.010593243
-0.042435627 -0.046410743 -0.010126286
-0.036715262 -0.046489231 -0.010818671
0.036136288 -0.046566267 -0.010903363
0.041965798 -0.045620114 -0.010319538
0.042063199 -0.047186103 -0.010540351
-0.042286631 -0.043083504 -0.011511905
-0.036774091 -0.043581866 -0.010964946
0.036079943 -0.043676764 -0.010502379
0.041867185 -0.043835718 -0.0099320216
0.035839073 -0.040179279 -0.010367754
0.041722834 -0.040772483 -0.0097669195
-0.042138051 -0.038239826 -0.010669436
-0.036487292 -0.038203217 -0.010465228
0.035673112 -0.037571564 -0.010466495
0.041587565 -0.037604693 -0.010992408
-0.042032734 -0.034501433 -0.010064137
-0.036188081 -0.033869751 -0.010686399
0.035585575 -0.034896955 -0.0099659292
0.041491032 -0.035307419 -0.011439726
-0.041942243 -0.031663802 -0.010372107
-0.036091264 -0.031186013 -0.010322972
-0.03592214 -0.031193715 -0.01152575
0.035413358 -0.031384278 -0.010171223
-0.041878425 -0.029797118 -0.011046951
-0.036028836 -0.028420942 -0.0097608874
-0.035849255 -0.028572874 -0.011262655
0.035259575 -0.027707752 -0.010049496
0.041131623 -0.027869515 -0.0090761669
-0.041774452 -0.025647251 -0.010000212
-0.035840582 -0.025435984 -0.010344082
0.035043471 -0.024944179 -0.011011365
0.041047208 -0.025723374 -0.0097066462
-0.041667745 -0.021402743 -0.010133441
-0.035717517 -0.02244541 -0.010356648
0.034975532 -0.023089822 -0.010469861
-0.04160985 -0.01885388 -0.010669127
-0.035614338 -0.019635396 -0.010446963
0.034785867 -0.01947326 -0.010502784
-0.04157909 -0.01702084 -0.010555925
-0.035532281 -0.016259294 -0.010468474
0.034577329 -0.016286178 -0.0098487921
0.04078557 -0.01750668 -0.011809212
-0.04153448 -0.014586541 -0.011190958
-0.035545994 -0.012646488 -0.0096134394
0.03423053 -0.013605258 -0.010497496
0.040639356 -0.013978746 -0.010492226
-0.041538101 -0.009709876 -0.0094673233
-0.035185736 -0.010670109 -0.0099959671
0.034348972 -0.010076752 -0.010373001
0.040529706 -0.010550734 -0.010639407
-0.041501615 -0.0071440199 -0.010166711
-0.035292208 -0.007503421 -0.010523704
0.034544382 -0.007254133 -0.010292056
0.040447559 -0.0079539521 -0.010495347
-0.041432243 -0.004052409 -0.0099806637
-0.035708174 -0.0040515163 -0.010813438
0.034708794 -0.0040097251 -0.0099848881
0.040088743 -0.0037364932 -0.01087533
-0.041054059 -0.00091954536 -0.010087344
-0.036274828 -0.0017163639 -0.010014699
-0.035912681 -0.0027603726 -0.010822801
0.035039768 -0.00020725979 -0.010681026
0.039845973 -0.001350883 -0.010417999
-0.040245112 0.0018027569 -0.010491073
-0.03728383 0.0016141366 -0.010387268
0.035213202 0.0019537173 -0.010412591
0.038875729 0.0020905854 -0.010272883
0.039365023 0.00064461038 -0.01016113
-0.039292481 0.0038355181 -0.011435057
-0.037190229 0.0036672147 -0.010637756
-0.035872582 0.0050369226 -0.010344645
0.034932476 0.0043409914 -0.010569942
0.03773104 0.0045370325 -0.010930792
-0.036701392 0.0074223955 -0.010401368
-0.03479217 0.0082361894 -0.010583341
0.034461427 0.0067986511 -0.010739193
0.036427516 0.006433283 -0.009555473
-0.034545057 0.0099600963 -0.010230253
-0.031619769 0.010993185 -0.011232877
0.032046515 0.01137748 -0.0099975821
0.033713996 0.0096899467 -0.010722343
-0.031096414 0.013746397 -0.010521669
-0.027647309 0.014978601 -0.0093832454
0.027632415 0.013754149 -0.010238046
0.031040667 0.01267301 -0.010263321
-0.025612909 0.016945787 -0.010250598
0.026180465 0.01679025 -0.010710398
0.028497562 0.01543821 -0.010680556
-0.025268484 0.019546982 -0.010058264
-0.022239085 0.019699082 -0.010469103
0.01992866 0.020467877 -0.0099464981
0.022698535 0.019823797 -0.01083702
0.025346082 0.018638773 -0.010724041
-0.023006277 0.021670071 -0.01090997
-0.019528834 0.0222643 -0.010494418
-0.016296744 0.023336709 -0.010267759
-0.01490721 0.023934875 -0.0096862791
0.014481734 0.023477204 -0.0096048648
0.015934875 0.023257479 -0.010799344
0.019377343 0.022007845 -0.0098375287
-0.018771295 0.024587186 -0.010981467
-0.016176211 0.025450034 -0.010242403
-0.013920201 0.025098413 -0.0094235819
0.01408167 0.025335748 -0.0098809879
0.015843347 0.02558361 -0.011039848
0.018517384 0.024225425 -0.011055333
-0.015817709 0.027951306 -0.010652114
-0.014036176 0.028714301 -0.010207904
0.01363983 0.028294139 -0.01020911
0.015057236 0.027609728 -0.011377788
-0.015516657 0.030925147 -0.011467699
-0.014109742 0.031911626 -0.010929007
0.011343126 0.031955224 -0.0095887808
0.01332601 0.031479713 -0.010731739
-0.013379201 0.034168582 -0.010945351
0.011148409 0.034238435 -0.0099771088
0.012925521 0.034232724 -0.0109361
-0.015421509 0.036992788 -0.011889221
-0.013571441 0.036893155 -0.010717403
-0.01174021 0.036602005 -0.010185134
0.011404463 0.036328133 -0.010187759
0.012669113 0.036636062 -0.011119339
-0.012942617 0.040978584 -0.011146709
-0.010932984 0.040350176 -0.0097126914
-0.0089818984 0.041991636 -0.0093293963
0.0081195924 0.039316021 -0.009222717
0.010996928 0.040392943 -0.01044584
0.012858722 0.040922925 -0.011730728
-0.013129125 0.043718856 -0.011475236
-0.010730769 0.04403257 -0.0098664099
-0.0088120745 0.043906059 -0.0095794657
0.0080679785 0.042155132 -0.0097441971
0.010873773 0.043395042 -0.010784013
0.012017985 0.043762323 -0.011538177
-0.013278621 0.046499625 -0.011691334
-0.010605617 0.046064191 -0.0098795462
-0.0075723049 0.047050092 -0.0093940888
0.0081762802 0.046334684 -0.0098651387
0.011380274 0.047071368 -0.011490434
0.012041213 0.045932814 -0.011864707
-0.012552605 0.049052779 -0.011638627
-0.010879152 0.049396139 -0.010907466
-0.0070130047 0.050017223 -0.009467327
-0.0054637287 0.050884407 -0.0090782726
0.0056522088 0.050991643 -0.0099283429
0.0079073012 0.049847316 -0.010061846
0.011244779 0.049565379 -0.011609104
0.012000965 0.049122024 -0.01199487
-0.010175939 0.052775282 -0.011517659
-0.0074902889 0.052709386 -0.010103365
-0.0051388126 0.052721947 -0.0093391156
-0.0027653123 0.053140484 -0.0091392798
0.00040027656 0.053971667 -0.0091322912
0.004494885 0.051416393 -0.0091883745
0.0073879608 0.052190721 -0.010123744
0.010458968 0.0515473 -0.01168439
-0.0096995803 0.055542938 -0.011323906
-0.0076049888 0.055679753 -0.010510867
-0.0048200777 0.055819601 -0.0096829627
0.0011057967 0.055475742 -0.0093444865
0.0042507122 0.054729152 -0.0094591361
0.0075857416 0.05571242 -0.011169676
-0.0097089903 0.057743341 -0.011482613
-0.0074062771 0.058280975 -0.010725171
-0.0047423267 0.058548197 -0.0099254278
-0.001083602 0.05897814 -0.0091743618
0.0017574433 0.058309738 -0.0094870338
0.0042640548 0.057753727 -0.010215879
0.0067272461 0.058213945 -0.010950428
-0.0090543916 0.060002949 -0.011584419
-0.0070977965 0.061831802 -0.011220155
-0.004441652 0.061740696 -0.010626962
-0.001907584 0.06172796 -0.010102281
0.0017513762 0.061303318 -0.010039533
0.0040488397 0.061093219 -0.010605756
0.006832242 0.060415935 -0.01145945
-0.0073144627 0.063838586 -0.011682495
-0.0046819788 0.064334385 -0.011445289
-0.0018038357 0.0641504 -0.011000051
0.0022855513 0.064114094 -0.010849418
0.0040928661 0.064447738 -0.011249497
0.0061905356 0.063915245 -0.011747103
-0.0014655242 0.066784859 -0.011896164
0.0019937186 0.066739425 -0.011749594
0.0039191297 0.066793181 -0.011800063
-0.048009712 -0.066856794 -0.007204345
-0.047701329 -0.067191705 -0.0076614437
-0.043522038 -0.068392321 -0.0080393339
-0.040351946 -0.068039976 -0.0075890506
-0.038557649 -0.066782065 -0.0074174004
0.03834879 -0.066575587 -0.0074728578
0.039920423 -0.067155458 -0.0071902596
0.043714859 -0.067111149 -0.0075226678
0.047181424 -0.066440746 -0.0075327572
-0.046565719 -0.065769129 -0.0077950787
-0.043491632 -0.065670997 -0.0074484292
-0.03738125 -0.064432375 -0.0076816608
0.037855003 -0.06544359 -0.0075311498
0.04335957 -0.064116962 -0.0076006032
0.047452774 -0.065294378 -0.0071754246
-0.043080658 -0.062555663 -0.0078417202
0.037283286 -0.061213072 -0.007446887
0.042815756 -0.061800558 -0.0071530761
-0.042974159 -0.059284903 -0.0078517608
-0.036701262 -0.058378048 -0.0075579719
0.036932852 -0.058640197 -0.0074040382
0.042774193 -0.05981461 -0.0075355265
-0.04283531 -0.05581348 -0.0075724781
-0.03615278 -0.054855742 -0.0078650014
0.036682308 -0.055446133 -0.0082032904
0.042517155 -0.055772454 -0.0078616086
-0.042722754 -0.052397944 -0.0063332128
-0.03615446 -0.052451033 -0.0081112226
0.036585953 -0.052579537 -0.0073857978
0.042279787 -0.052333169 -0.0070799831
-0.036494147 -0.048972499 -0.0082488908
0.036488134 -0.049498014 -0.0074451673
0.04212017 -0.049461804 -0.0070947902
-0.042488769 -0.04623514 -0.007002261
-0.03708905 -0.046516746 -0.0080439122
0.036419962 -0.046228908 -0.0080792177
0.041939516 -0.046075881 -0.0077918619
0.042047903 -0.047802985 -0.0082473578
-0.042402402 -0.044017848 -0.0073581133
-0.037315127 -0.043486353 -0.0074377423
0.036409266 -0.043372091 -0.0068109944
0.04181347 -0.043504633 -0.0077697178
-0.042267714 -0.04035449 -0.0074297423
-0.037248701 -0.040065993 -0.0066395407
0.036231827 -0.040611658 -0.0070035295
0.041682005 -0.04078348 -0.00798117
-0.036977202 -0.037894323 -0.006937488
0.035906505 -0.037269879 -0.0083212191
0.036083497 -0.03787725 -0.0071882121
0.041507296 -0.037341282 -0.0070709679
-0.042070191 -0.034577336 -0.0081382217
-0.036723364 -0.034465831 -0.0067533036
0.035749089 -0.034437589 -0.0083755916
0.036002193 -0.034419067 -0.0061894483
0.041391477 -0.034649916 -0.0074800327
-0.041946433 -0.030031795 -0.0079354402
-0.036488347 -0.031256869 -0.0069973734
0.035592891 -0.031063097 -0.0078188721
0.041264199 -0.031414442 -0.0085909013
-0.041907713 -0.028262649 -0.0071446216
-0.036335099 -0.028309271 -0.0070174746
0.035472333 -0.028652132 -0.0074737608
-0.04181949 -0.025566615 -0.0076029329
-0.036203761 -0.025351621 -0.0068477527
0.035451602 -0.025301123 -0.0068549351
-0.041743848 -0.022005625 -0.0069337208
-0.036086734 -0.022757603 -0.0065495665
-0.035919908 -0.022061139 -0.0072426633
0.035275787 -0.022445738 -0.0069759674
0.040900301 -0.023077657 -0.008896091
-0.041683141 -0.018906154 -0.0070461133
-0.036076408 -0.019985953 -0.0062219347
-0.035806004 -0.019544883 -0.0070469477
0.034908123 -0.019464506 -0.0073600295
0.040764689 -0.01943367 -0.0081517324
-0.041655969 -0.016899722 -0.0070569892
-0.036000837 -0.015555667 -0.0061269752
-0.03575743 -0.016351981 -0.0071753943
0.034422997 -0.016365139 -0.0077707903
0.040648058 -0.01595626 -0.0079287896
-0.041635241 -0.013359436 -0.007327992
-0.035735618 -0.013133814 -0.0068431557
0.034086287 -0.013453647 -0.0075481213
0.04053105 -0.013060275 -0.0072739362
-0.041651785 -0.010186341 -0.0068885405
-0.035296738 -0.010963737 -0.00715762
0.034182727 -0.010868251 -0.0076975939
0.040451623 -0.010805687 -0.0073070154
-0.041627072 -0.0075489581 -0.0067078266
-0.035367001 -0.0075700111 -0.0078691663
0.034330849 -0.0083932541 -0.0077753835
0.040326908 -0.0073180208 -0.0069744415
-0.041526407 -0.0044438578 -0.0079070013
-0.036196049 -0.0030777587 -0.0075328611
-0.03585954 -0.004462461 -0.0086635454
0.034549844 -0.0042503336 -0.0078417743
0.039913613 -0.0035326055 -0.0061864201
-0.041216798 -0.0012296039 -0.007878297
-0.036345515 -0.0017060122 -0.0074627027
0.034904324 -0.00013062125 -0.0079611056
0.039753947 -0.0012583499 -0.0078315642
-0.0403612 0.0017631802 -0.0069329091
-0.037351076 0.0014238582 -0.0078149606
0.035156373 0.0024385531 -0.0081351018
0.038706832 0.0024675613 -0.0071140286
0.039297547 0.00070739724 -0.0076654484
-0.039411686 0.0037992366 -0.0067693917
-0.036939405 0.0041588536 -0.0080118859
0.034945752 0.0041063791 -0.0073036589
0.037732508 0.0043831137 -0.0076067066
-0.03687517 0.0072945319 -0.0078117028
-0.034069236 0.0077260453 -0.007356267
0.03450796 0.0073757777 -0.006847606
-0.03447172 0.010063627 -0.0079706367
-0.031936727 0.010448996 -0.0082226405
0.029270174 0.01186282 -0.0088724475
0.032086905 0.010931821 -0.0078498507
0.033343766 0.01006771 -0.0080703245
-0.030457865 0.014262414 -0.0071960473
-0.029590629 0.012989871 -0.0087921955
0.026684249 0.014458931 -0.0082679307
0.030840324 0.012653597 -0.0068847788
-0.028164282 0.01658646 -0.0080497507
-0.025939465 0.016679002 -0.0068325829
0.02335144 0.017239138 -0.0067650187
0.025040099 0.016718099 -0.007359806
0.028571136 0.015000359 -0.0073832464
-0.023477446 0.020484377 -0.0076587135
-0.020563636 0.019881489 -0.0068018613
0.017709821 0.020611316 -0.00613308
0.02038981 0.01947064 -0.0073702987
0.022806603 0.019638391 -0.0075609302
0.024657471 0.018682495 -0.0072669256
-0.021541128 0.021868939 -0.0077520697
-0.019035479 0.023226613 -0.0073254243
-0.016429808 0.022338048 -0.0081811948
-0.013462268 0.023493508 -0.007561869
-0.011375479 0.023762699 -0.0064506899
0.011156159 0.023853542 -0.0071765445
0.013421201 0.023364827 -0.0083044395
0.016070317 0.021953642 -0.0078828093
0.019226329 0.022549182 -0.0071368706
-0.015979966 0.024821339 -0.0079065571
-0.013468476 0.025319705 -0.0075946623
-0.01087476 0.025072971 -0.0067760586
-0.0086987894 0.026539925 -0.0061582238
0.00796925 0.025776209 -0.0063803969
0.010605099 0.02540121 -0.0069041527
0.013401815 0.025590831 -0.0081346426
0.016014272 0.024390124 -0.0077936817
-0.013140216 0.02776177 -0.0077734031
-0.010479006 0.028492557 -0.0069383122
-0.0082592424 0.028771246 -0.0062848935
0.0054564802 0.029875454 -0.0060134409
0.0074271271 0.028562289 -0.0067298943
0.010451515 0.028248733 -0.0077047898
-0.012835383 0.030979127 -0.0081894463
-0.0098819276 0.031128474 -0.0074736173
-0.0073601278 0.031909596 -0.0063773948
0.0049690264 0.031691056 -0.006245445
0.006981831 0.031557512 -0.0071213753
0.0099502513 0.031341575 -0.0081327539
-0.0069644651 0.034553457 -0.0067086327
-0.0052946131 0.034672357 -0.0062526977
0.002817391 0.035300575 -0.0061696451
0.0047849137 0.034011282 -0.0065472219
0.0075219311 0.034096736 -0.0078726783
-0.012092561 0.036121719 -0.0086913537
-0.01049643 0.03629113 -0.0081197321
-0.0070361621 0.037283253 -0.0070304931
-0.0054111667 0.03761068 -0.006756092
-0.0014359772 0.036485333 -0.0063154455
0.0023343661 0.036939956 -0.0063813739
0.0043454086 0.03737355 -0.0068330402
0.0073553016 0.036426537 -0.0074647912
0.0098669212 0.036359772 -0.008286098
-0.010107588 0.040981527 -0.0084439488
-0.0068142582 0.040682446 -0.0076067545
-0.0054770908 0.040416259 -0.0072640674
-0.0022031968 0.039483819 -0.0068778018
0.0018252927 0.040087268 -0.0068851574
0.0040559834 0.040788833 -0.0072675464
0.0071848473 0.041842449 -0.0079382388
-0.0096124196 0.043881252 -0.0086946636
-0.0068784594 0.043425865 -0.0080492115
-0.0044352729 0.043018606 -0.0070491517
-0.0014452268 0.044079665 -0.0065692826
0.0014008045 0.042989809 -0.0067767017
0.0041710259 0.044268776 -0.0078789713
0.0069991965 0.044567756 -0.0083768982
-0.0091917366 0.045827087 -0.008803024
-0.0068074046 0.046235144 -0.008334484
-0.0047781668 0.046251796 -0.0078749685
-0.0013736062 0.046787269 -0.0067030974
0.00098120491 0.046513412 -0.0071699722
0.0039474685 0.047598682 -0.0080153625
0.0064954506 0.047299266 -0.0086339563
-0.0066553107 0.048767358 -0.0084162746
-0.0048025674 0.049559191 -0.0084181782
-0.0014694704 0.04955266 -0.0070429696
0.0010230081 0.049221084 -0.0076934742
0.0036419902 0.049184922 -0.0084098913
-0.0061642509 0.05281572 -0.0088600209
-0.0042366637 0.05177753 -0.0081726834
-0.0014104031 0.051692456 -0.0077159358
0.0015405836 0.051887002 -0.0083554732
0.0039546159 0.052207936 -0.0088322368
-0.0045659491 0.054746751 -0.0087691592
-0.001476226 0.055708915 -0.008565627
0.0021311468 0.055605561 -0.0088109933
-0.003224584 0.057024848 -0.0089580528
-0.00093039131 0.057063639 -0.008774912
0.001366239 0.057000313 -0.0089179147
-0.04802525 -0.066737585 -0.0038453767
-0.04768803 -0.067134969 -0.0044715744
-0.043570392 -0.068349347 -0.005272924
-0.040266015 -0.068041109 -0.0048746034
-0.038535856 -0.066781826 -0.0048601036
0.038387042 -0.066554323 -0.0050542331
0.039887182 -0.067094214 -0.0047960519
0.043795303 -0.067084715 -0.004492444
0.047171913 -0.066400811 -0.0042343
-0.046681128 -0.065706961 -0.0041967682
-0.04353071 -0.065690085 -0.004673664
-0.037762366 -0.064945929 -0.0042048111
0.037796121 -0.065049648 -0.0049417773
0.043188512 -0.063881844 -0.0045601339
0.047392748 -0.065151691 -0.0046163187
