# .PCD v0.7 - Point Cloud Data file format
VERSION 0.7
FIELDS x y z
SIZE 4 4 4
TYPE F F F
COUNT 1 1 1
WIDTH 1257
HEIGHT 1
VIEWPOINT 0 0 0 1 0 0 0
POINTS 1257
DATA ascii
-0.03575008 -0.017596405 -0.070588931
-0.032067269 -0.017773757 -0.071571663
-0.027907155 -0.017515089 -0.072180793
-0.022682043 -0.017533727 -0.072310694
-0.017748805 -0.017533991 -0.072806843
-0.013981831 -0.017443091 -0.07201761
-0.0076328665 -0.017978029 -0.071961336
-0.0019822409 -0.018545508 -0.070567451
0.0028780061 -0.018405065 -0.071746878
0.007687876 -0.016999016 -0.070500933
0.011369769 -0.018123344 -0.07081531
0.017053122 -0.017655034 -0.070554942
0.026768308 -0.01840833 -0.071667865
0.032636244 -0.017115226 -0.070941776
-0.03575664 -0.013382697 -0.070495009
-0.032774683 -0.013051478 -0.071473233
-0.027783798 -0.012615556 -0.071743205
-0.022671096 -0.012375468 -0.071513876
-0.018191069 -0.013406547 -0.072673745
-0.013530639 -0.011688932 -0.071396612
-0.007014133 -0.012277644 -0.071465872
-0.0020689587 -0.012759215 -0.070889547
0.0031559633 -0.012475463 -0.071349539
0.0072731404 -0.011432609 -0.070871234
0.011142438 -0.012194971 -0.0711684
0.017912835 -0.012667142 -0.071744546
0.023025976 -0.013702773 -0.07165651
0.027928174 -0.012998913 -0.071518913
0.032731954 -0.012656759 -0.070829362
-0.035556063 -0.0070169084 -0.070396103
-0.032614239 -0.0077565163 -0.071539193
-0.027812643 -0.0066313781 -0.071361922
-0.022169961 -0.0067617372 -0.071359783
-0.016838577 -0.0070202169 -0.0717806
-0.012088545 -0.0072701918 -0.072185531
-0.0073169833 -0.0074401954 -0.071223013
-0.0026098008 -0.0077269846 -0.070864841
0.0028547219 -0.0075200154 -0.070990868
0.0076225083 -0.0073285121 -0.070865154
0.01182501 -0.007282414 -0.071294732
0.019897947 -0.0080290064 -0.07160525
0.020147193 -0.006062103 -0.071506783
0.028795687 -0.0072635035 -0.071338274
0.032480981 -0.0076950323 -0.07070493
-0.031853914 -0.003534036 -0.070884392
-0.027707893 -0.0029559911 -0.070971049
-0.022559328 -0.002826931 -0.070829108
-0.01752156 -0.0027920622 -0.071088471
-0.012536587 -0.0027890604 -0.071283236
-0.0073933452 -0.002911401 -0.071192659
-0.0028005769 -0.0025016835 -0.071190909
0.002643195 -0.0026048566 -0.0715909
0.0072411252 -0.001800298 -0.071349509
0.012507414 -0.0021751425 -0.071289882
0.016591854 -0.0035613701 -0.071466506
0.021684164 -0.002290441 -0.071060702
0.028170547 -0.0017960446 -0.070711672
0.031424757 -0.002902661 -0.070498511
-0.030631436 0.00055841089 -0.070322886
-0.027499504 0.00068610086 -0.070876844
-0.021700667 0.0015565357 -0.070572846
-0.017644448 0.0012950754 -0.070665546
-0.012804171 0.001477056 -0.070531242
-0.0071452274 0.0010829198 -0.070661545
-0.0024518524 0.0010490187 -0.07063479
0.0028738456 0.0010333748 -0.070569053
0.0067694974 0.00108856 -0.070403457
0.012531314 0.00080583518 -0.070392162
0.0174133 0.00072701205 -0.070276454
0.022673242 0.00048750034 -0.070246741
0.028110221 0.00031347439 -0.070085444
-0.045457765 -0.068824738 -0.0663587
-0.042673927 -0.06824737 -0.067439042
-0.038263727 -0.06802018 -0.068266295
-0.034880735 -0.06812273 -0.06985493
0.034684088 -0.067265615 -0.069827124
0.038206313 -0.067922533 -0.068232842
0.04226638 -0.06696146 -0.067476355
0.046315916 -0.067564428 -0.06701941
-0.040514942 -0.062476061 -0.06591583
-0.038408719 -0.062359761 -0.067993969
-0.03470654 -0.062647939 -0.069847837
0.034297023 -0.063809551 -0.069816075
0.037820831 -0.062407549 -0.067704827
0.04116042 -0.063577242 -0.066791095
-0.040509813 -0.058088947 -0.065786555
-0.037989657 -0.057188772 -0.067676872
-0.03460934 -0.0574103 -0.069882296
0.033960775 -0.05670372 -0.069682941
0.03821842 -0.057773933 -0.067775659
0.041030008 -0.057714615 -0.066611148
-0.040428359 -0.052171908 -0.065762073
-0.037661515 -0.052479789 -0.067813925
-0.034769364 -0.053853862 -0.069697186
0.033650536 -0.051387459 -0.069559507
0.038016867 -0.052410182 -0.068150721
0.041005637 -0.051749118 -0.066144541
-0.040298533 -0.048523001 -0.065891884
-0.037615988 -0.047650632 -0.067561686
-0.034172524 -0.048822243 -0.069951802
0.033440217 -0.047040224 -0.06950222
0.038474374 -0.047502831 -0.068012305
0.040796164 -0.047889192 -0.066217981
-0.040283717 -0.04270146 -0.065679811
-0.038062934 -0.042294063 -0.067229673
-0.034645665 -0.041845921 -0.069490187
0.033610236 -0.042776529 -0.069299601
0.038067997 -0.042818524 -0.0676606
0.040757243 -0.042540897 -0.065854341
-0.040233314 -0.036978398 -0.065654419
-0.037599865 -0.037220936 -0.067407347
-0.034443364 -0.037592974 -0.069547422
0.033359442 -0.036653172 -0.069143668
0.037844263 -0.03715818 -0.067953631
0.040493142 -0.037164945 -0.065862536
-0.040287368 -0.032847874 -0.065303005
-0.037766371 -0.032718726 -0.067481302
-0.03419384 -0.031877995 -0.069520645
0.029276036 -0.032873679 -0.069981679
0.033225119 -0.031875245 -0.068992108
0.03774957 -0.032374308 -0.067730293
0.040197477 -0.032423981 -0.065946981
-0.040170319 -0.026996937 -0.0653686
-0.037729017 -0.027162865 -0.06735535
-0.03419612 -0.027218089 -0.069412753
0.028206319 -0.027408419 -0.069900237
0.03259214 -0.027647249 -0.069058008
0.037232377 -0.027596483 -0.067750953
0.040299498 -0.027536746 -0.065476172
-0.040158711 -0.022262407 -0.065157093
-0.037414894 -0.022213459 -0.067383491
-0.034082945 -0.022607457 -0.069351658
0.024864625 -0.023592129 -0.06997408
0.027444104 -0.021944739 -0.069761209
0.03318242 -0.022586077 -0.068660982
0.037466228 -0.022161601 -0.067379408
0.040146597 -0.022826381 -0.065334119
-0.037235804 -0.017694382 -0.067145683
-0.033674534 -0.018138614 -0.069467902
0.018967211 -0.015098618 -0.069896251
0.022260038 -0.017346974 -0.069870435
0.029252622 -0.017125893 -0.069566309
0.032749034 -0.01722496 -0.068700776
0.037355404 -0.017566934 -0.06733878
-0.037366141 -0.012705779 -0.067325778
-0.033580072 -0.012242426 -0.069383539
0.014384666 -0.011318797 -0.069908112
0.017785804 -0.011854893 -0.069839954
0.021844868 -0.012825342 -0.069746785
0.027716193 -0.012381364 -0.069538549
0.032779459 -0.01252607 -0.068565875
0.036837213 -0.012313459 -0.067171529
-0.037392441 -0.0068817907 -0.067365132
-0.03344515 -0.0076166503 -0.069390215
0.0072017182 -0.0052649039 -0.069927052
0.013415906 -0.007173737 -0.069833361
0.018649191 -0.0078673596 -0.069688626
0.021489389 -0.0075757527 -0.069610268
0.02908675 -0.0070016971 -0.069265977
0.032777801 -0.0071065729 -0.068492033
0.036921509 -0.0068871118 -0.066900276
-0.036984295 -0.0029429079 -0.067230195
-0.032759786 -0.0024692803 -0.06863863
-0.02802535 -0.0010679674 -0.06964761
-0.022325883 -0.0010010141 -0.069727197
-0.017131463 -0.00093947834 -0.069642656
-0.011975308 -0.0010371312 -0.069663353
-0.0072118449 -0.0012955276 -0.069670826
-0.002774368 -0.0014842395 -0.069602579
0.0019023854 -0.001505498 -0.069493338
0.0073783579 -0.0019961621 -0.069446258
0.012869402 -0.0019858798 -0.0693276
0.017375827 -0.0017047075 -0.069132812
0.022635449 -0.0023331419 -0.069083236
0.027615543 -0.0022877571 -0.068897612
0.032867972 -0.0025048021 -0.068136692
0.03660062 -0.0031527192 -0.066665351
-0.036212582 0.0010769287 -0.065973572
-0.032366063 0.0018764086 -0.067234606
-0.027459353 0.0025095912 -0.067749076
-0.022590773 0.0028215365 -0.067733549
-0.017695708 0.0029460907 -0.067767821
-0.012377095 0.0029605194 -0.067995653
-0.0075266077 0.0027194705 -0.068182223
-0.0026045383 0.0025011452 -0.068019792
0.0024367908 0.0024860236 -0.067975238
0.0073481421 0.0026422502 -0.067805029
0.012660954 0.002739009 -0.067712836
0.017780812 0.0028907435 -0.06719479
0.022520004 0.0028783276 -0.067345656
0.027639277 0.0023583109 -0.067857638
0.032055732 0.0018903917 -0.067132659
0.03570082 0.00073043158 -0.066358529
-0.026872158 0.0057664881 -0.066195853
-0.022397021 0.0058884667 -0.066773497
-0.016398737 0.00573962 -0.067138702
-0.012029367 0.0064518875 -0.066349439
-0.0081694704 0.005834986 -0.066664137
-0.0025574898 0.0065671317 -0.066299565
0.0021172159 0.0056139063 -0.065994598
0.0082264598 0.0053951885 -0.06737259
0.012037848 0.0070892451 -0.065391175
0.017495841 0.0057125213 -0.066720143
0.022951787 0.0061452514 -0.066014141
0.028106822 0.0053005097 -0.066272281
0.030346148 0.0050180173 -0.065776408
-0.046198092 -0.068618886 -0.062377077
-0.041578922 -0.068159804 -0.062630832
-0.039492436 -0.068029054 -0.063496865
0.042652946 -0.067110404 -0.062554725
0.047670737 -0.067363903 -0.062332902
-0.041534759 -0.062539011 -0.062539734
-0.039509464 -0.062828697 -0.062630981
0.039858248 -0.062670141 -0.064942576
0.041764617 -0.062935218 -0.062673561
-0.04141989 -0.057604097 -0.062643744
-0.039516091 -0.057056867 -0.062439017
0.039745241 -0.05681885 -0.064727351
0.041636907 -0.057620648 -0.062539048
-0.041238591 -0.052272208 -0.063011073
-0.039376501 -0.052599296 -0.062910542
0.039941952 -0.052908637 -0.063760221
0.041632731 -0.052960102 -0.062200308
-0.041112971 -0.048155509 -0.063372061
-0.039308753 -0.047722392 -0.062616967
0.039392531 -0.048031848 -0.064508408
0.041888949 -0.047868825 -0.06258174
-0.041034605 -0.042796392 -0.063125044
-0.038996082 -0.04251733 -0.063604705
0.039585825 -0.04303094 -0.063589491
0.041209321 -0.042934109 -0.062224515
-0.040912531 -0.037341207 -0.063340008
-0.038971994 -0.03758806 -0.063377135
0.039432518 -0.036944903 -0.063151158
0.041450713 -0.037471104 -0.062434409
-0.041015677 -0.032644391 -0.062620342
-0.039085276 -0.033307862 -0.062642843
0.039592378 -0.032011483 -0.062157057
0.041385293 -0.032604124 -0.063060194
-0.04088635 -0.027172856 -0.06293229
-0.039097764 -0.027260657 -0.062143963
0.039259806 -0.028507322 -0.062548883
0.04137595 -0.027698886 -0.062858805
-0.040762838 -0.022985633 -0.063086525
-0.038916163 -0.021701815 -0.062377695
0.039063085 -0.022212768 -0.062392581
0.041188732 -0.022553675 -0.062704593
-0.040816531 -0.017789261 -0.062346876
-0.038749967 -0.017098634 -0.062921159
0.037949398 -0.018563742 -0.064491779
0.040941134 -0.017790345 -0.062766768
-0.04075285 -0.012901443 -0.062293261
-0.038658321 -0.013251172 -0.062799767
0.038417585 -0.011908193 -0.062746719
0.040597185 -0.01251447 -0.063266359
-0.040626891 -0.0074874149 -0.062379166
-0.038498648 -0.0073616472 -0.062984802
0.038266692 -0.0065085962 -0.063000955
0.040659327 -0.0068468698 -0.061963424
-0.040438469 -0.0036528646 -0.061595127
-0.038145214 -0.0026189871 -0.063171528
0.038167771 -0.0023912496 -0.062569782
0.040446289 -0.0032709579 -0.061399207
-0.036775041 0.0019459177 -0.062254645
-0.03337783 0.0032241896 -0.062806852
-0.027647302 0.004586414 -0.064391017
0.023126282 0.0049202507 -0.064789563
0.027345201 0.0044736313 -0.064407371
0.032941755 0.0030756742 -0.063393071
0.037089337 0.0020103245 -0.061866615
-0.031839371 0.0060000429 -0.062112268
-0.027559699 0.0070615569 -0.062118735
-0.022539647 0.0080361804 -0.062449813
-0.017776294 0.0079661934 -0.063291371
-0.012687908 0.0085758977 -0.062639743
-0.0078790234 0.0084788911 -0.062905379
-0.0022713186 0.006948886 -0.063761689
0.0020863831 0.0073083281 -0.063141823
0.0076030684 0.0076595037 -0.063886829
0.012705312 0.0083416514 -0.062275212
0.0182926 0.0076961783 -0.0628125
0.023280518 0.007051555 -0.06264019
0.026997173 0.0067166411 -0.062392123
0.032998532 0.005682861 -0.062537342
-0.022052925 0.010530783 -0.06054442
-0.017463516 0.010734099 -0.06083589
-0.013099927 0.010891603 -0.060947359
-0.0079473164 0.010896609 -0.061244518
-0.0035094398 0.011974398 -0.060180984
0.0032086764 0.011743708 -0.060361933
0.0083021931 0.011693792 -0.060169667
0.013630196 0.010913665 -0.06069994
0.016396884 0.010690393 -0.060771681
-0.046325374 -0.068720229 -0.057683434
-0.041911863 -0.068398252 -0.057319123
-0.039981302 -0.066859327 -0.058894355
0.042997856 -0.067385018 -0.057730421
0.047580961 -0.067087851 -0.057188321
-0.040755779 -0.062785201 -0.05763695
-0.039975274 -0.062980264 -0.059370011
0.043442655 -0.063600525 -0.057390064
-0.040843755 -0.057631481 -0.057276968
-0.039946046 -0.057387695 -0.05887847
0.043202784 -0.057508286 -0.058052391
-0.041124221 -0.052009437 -0.056941729
-0.039904598 -0.052433513 -0.057866737
0.042421378 -0.052363634 -0.057966035
-0.04157285 -0.047046643 -0.058964923
-0.039850723 -0.047424603 -0.057386067
0.042886037 -0.047821537 -0.058250211
-0.041543458 -0.043018881 -0.057707742
-0.039792553 -0.042947903 -0.05728478
0.042309515 -0.042648088 -0.058327977
-0.041479267 -0.036871187 -0.056829877
-0.039727353 -0.036791671 -0.056832284
0.042083692 -0.037852034 -0.058130674
-0.0413463 -0.032464102 -0.058376759
-0.039595254 -0.033240147 -0.057454273
0.041789617 -0.032825373 -0.057836216
-0.041292217 -0.027248107 -0.057800721
-0.039545916 -0.028364195 -0.057955824
0.039914273 -0.027745714 -0.057783209
0.042185348 -0.027449494 -0.058274567
-0.041207459 -0.021856861 -0.057389729
-0.039573152 -0.023883954 -0.056933541
0.039718438 -0.021913495 -0.057890549
0.041940648 -0.021913674 -0.058426104
-0.041147351 -0.01829071 -0.057561994
-0.03937969 -0.017458431 -0.057578124
0.039506681 -0.017015135 -0.058954943
0.041728523 -0.017552763 -0.057533763
-0.041057345 -0.011848195 -0.058212146
-0.039243087 -0.013255148 -0.057865892
0.039340951 -0.012652636 -0.058888339
0.04151215 -0.012256951 -0.057202235
-0.04096102 -0.0074239597 -0.058271743
-0.039097659 -0.0073958137 -0.05757058
0.039068833 -0.0073943697 -0.0593617
0.041195128 -0.0075828643 -0.05785422
-0.040423911 -0.0022837382 -0.058510646
-0.038567208 -0.0019357546 -0.057906449
0.038361322 -0.0015796818 -0.058272671
0.04060708 -0.0020213991 -0.057712022
-0.037191775 0.002705584 -0.057814531
-0.034553669 0.0043157078 -0.05769103
0.034043375 0.0044433326 -0.058311976
0.037239421 0.0023268284 -0.057568394
0.040047072 0.00017856946 -0.057859868
-0.035768833 0.0055987048 -0.057551395
-0.032619052 0.0068857013 -0.057231836
-0.027810933 0.0081520407 -0.058670159
-0.019149113 0.0099052144 -0.059076052
0.00058410806 0.0098891947 -0.059848353
0.015433155 0.0096514151 -0.059352294
0.022647262 0.0091121234 -0.058858871
0.027562348 0.0084945625 -0.058118559
0.032415017 0.0072441869 -0.056545954
0.036045872 0.0057872073 -0.057530228
-0.027179951 0.011022903 -0.056598544
-0.022496581 0.011694562 -0.057630841
-0.017373824 0.012543187 -0.056909144
-0.012166203 0.011768378 -0.058640387
-0.0073931948 0.013793468 -0.057663586
-0.0024350747 0.013610534 -0.05723992
0.0029520008 0.0131571 -0.057845313
0.0078278817 0.012429315 -0.057260968
0.012569704 0.012401974 -0.058205225
0.017431887 0.012598616 -0.057046168
0.021894114 0.011929704 -0.057302698
0.026322898 0.011004101 -0.057402756
-0.011905825 0.015535284 -0.055338405
-0.00035652122 0.015950145 -0.055669025
0.0054550543 0.015806481 -0.05553
0.012436458 0.015276051 -0.055381399
-0.046515878 -0.0686187 -0.052258529
-0.041711073 -0.068602681 -0.052288122
0.043260906 -0.067251936 -0.052483369
0.047383986 -0.067332022 -0.052542806
-0.040266655 -0.06252344 -0.052503251
0.043555226 -0.063037723 -0.052543383
-0.040638585 -0.057803821 -0.052478723
0.042950079 -0.057165004 -0.052280266
-0.040451784 -0.052272908 -0.052186705
0.042429406 -0.051940095 -0.052618831
-0.040450007 -0.047743563 -0.051554792
-0.039997395 -0.046301581 -0.053004771
0.040762603 -0.04746351 -0.0539946
-0.041153759 -0.042757649 -0.051741108
-0.039947357 -0.042311799 -0.053081624
0.041311435 -0.042560346 -0.052112866
-0.041601643 -0.036736079 -0.052594986
-0.039851628 -0.036200874 -0.052748717
0.040605027 -0.037131287 -0.052797288
-0.041480988 -0.031888239 -0.053751051
-0.039745804 -0.032878406 -0.053213038
0.039931409 -0.032232277 -0.052120168
0.041450649 -0.033099975 -0.053054996
-0.041414883 -0.027481424 -0.053095102
-0.039660625 -0.028095936 -0.053698916
0.039829906 -0.028238544 -0.053125974
0.042001504 -0.025707899 -0.054095682
-0.041307725 -0.02254661 -0.053781956
-0.039657198 -0.022249907 -0.053013861
0.039641201 -0.023158334 -0.052092433
0.041814651 -0.023677988 -0.051960863
-0.041233458 -0.018127762 -0.05374708
-0.039494477 -0.016976176 -0.053463668
0.039529655 -0.018836536 -0.05246697
0.041630648 -0.017427687 -0.053571623
-0.041153632 -0.011769813 -0.053510427
-0.039372161 -0.011190651 -0.052694529
0.039397798 -0.013836509 -0.05418672
0.041430898 -0.012797359 -0.053170949
-0.041070078 -0.0075980946 -0.053369191
-0.039264776 -0.0068670576 -0.051517107
0.039020073 -0.0068242848 -0.053153377
0.041060604 -0.0072624455 -0.052935548
-0.040525172 -0.0022437682 -0.053983353
-0.038690612 -0.0023297935 -0.051959001
0.038369838 -0.0020135178 -0.052672666
0.040543228 -0.0023374022 -0.052813716
-0.036889214 0.0026201655 -0.052754723
0.037270397 0.0024571202 -0.05256398
-0.035736062 0.0061438801 -0.053976629
-0.032585397 0.0077742385 -0.05315448
-0.028352076 0.0095821721 -0.053678196
0.028869441 0.0095077911 -0.052419718
0.032938924 0.0073699602 -0.052784301
0.036270376 0.0062101134 -0.05297216
-0.030618805 0.010486092 -0.052928567
-0.027405655 0.012613902 -0.052097831
-0.022664951 0.013576182 -0.053593855
-0.019944724 0.012756817 -0.054681465
-0.011138601 0.013792045 -0.054967888
0.0082102502 0.014273438 -0.05433986
0.011629265 0.014623133 -0.053447351
0.01835306 0.013823232 -0.053869024
0.022721414 0.013305015 -0.053230908
0.027907327 0.01193822 -0.052277725
0.031196788 0.010467059 -0.052228529
-0.02225223 0.015849033 -0.051348548
-0.017487412 0.016111715 -0.052056666
-0.012810956 0.016315719 -0.052399948
-0.0077111162 0.017825145 -0.05132775
-0.0027870643 0.01824161 -0.052627109
0.0022812872 0.017930545 -0.051658541
0.006923256 0.017861268 -0.052387178
0.013493459 0.017012058 -0.052511778
0.017241947 0.01602871 -0.052321937
0.021640541 0.01568209 -0.051595904
-0.0090084141 0.020082761 -0.05011338
-0.046567567 -0.068596996 -0.047370117
-0.041615747 -0.068294644 -0.04705153
0.043175254 -0.066992685 -0.047532212
0.047858052 -0.067734078 -0.047606349
-0.04056311 -0.062825903 -0.047882434
0.043125488 -0.063975893 -0.047652449
-0.040567681 -0.057986602 -0.0472252
0.042808048 -0.057274103 -0.046066027
-0.040466364 -0.053313341 -0.047103357
0.041784093 -0.051937088 -0.047732774
-0.040164623 -0.048462249 -0.048089851
0.041936886 -0.047183033 -0.047854465
-0.04080772 -0.042562485 -0.04738605
0.041289903 -0.042186685 -0.047238618
-0.041317903 -0.036626335 -0.046799291
0.039898943 -0.037499417 -0.046804581
0.04166669 -0.03786435 -0.047237176
-0.0415827 -0.031592213 -0.049247928
-0.039895814 -0.032074623 -0.048082262
0.03981496 -0.032784477 -0.048387095
0.041973967 -0.031868473 -0.047413912
-0.041559242 -0.027690571 -0.046294108
-0.039812904 -0.02809629 -0.048588734
0.039592687 -0.028158134 -0.047022507
0.04179747 -0.027422886 -0.047920372
-0.039716367 -0.020718835 -0.049054619
0.03950711 -0.022891425 -0.048389092
0.041746341 -0.024989484 -0.049163856
-0.041370917 -0.018932965 -0.047617704
-0.039652765 -0.017716784 -0.047940552
0.039263651 -0.01554278 -0.047680989
0.041434627 -0.017691957 -0.048677981
-0.04128594 -0.011104679 -0.046999414
-0.039425742 -0.010166115 -0.04975206
0.03909184 -0.010964607 -0.047028087
0.041245569 -0.012581599 -0.048510648
-0.041187167 -0.0068115285 -0.047819857
-0.039421342 -0.0081531107 -0.04716754
0.038872253 -0.0066909287 -0.047747027
0.040907118 -0.0072571398 -0.048000261
-0.040803421 -0.0028629855 -0.047368485
-0.038832929 -0.0024716307 -0.048105106
0.038371552 -0.0020543367 -0.047844879
0.040529821 -0.0028902013 -0.047949653
-0.037004177 0.00277746 -0.048120916
0.034801133 0.0047397446 -0.047771469
0.037642304 0.0019827217 -0.047903351
-0.035675604 0.0064087384 -0.049346179
-0.03253258 0.0080798669 -0.047329105
0.029646158 0.0099169221 -0.046466209
0.03239784 0.0084375646 -0.0468072
0.036367502 0.0060650678 -0.048236072
-0.030350661 0.011519172 -0.049210075
-0.027297245 0.013612127 -0.047631267
-0.024140187 0.014796471 -0.046488382
0.023709679 0.014059559 -0.047707692
0.027380405 0.012595617 -0.047667995
0.030942611 0.011197257 -0.048019119
-0.02597864 0.015552451 -0.0466104
-0.022303447 0.016832048 -0.047544241
-0.017201677 0.017776657 -0.048204038
-0.012945771 0.018662293 -0.047998257
-0.0032011115 0.019442994 -0.048843179
0.0039768168 0.018658187 -0.0495435
0.006929751 0.018876649 -0.048752762
0.012632153 0.019051351 -0.047642261
0.017818805 0.018039022 -0.047787845
0.022566829 0.016441882 -0.047316365
0.025478663 0.015372369 -0.047513966
-0.016322214 0.021205653 -0.04572022
-0.012356918 0.020969534 -0.046951603
-0.0068964981 0.02269507 -0.046195161
-0.002545618 0.022746438 -0.046155587
0.0022258309 0.023182258 -0.046298727
0.0063701337 0.023431042 -0.045856167
0.01279515 0.020941075 -0.047515087
0.016450683 0.020472882 -0.046247628
-0.0060741357 0.025733957 -0.045382123
-0.0024158692 0.026321946 -0.045833785
0.0024927987 0.026257044 -0.045565125
0.0056678122 0.025219126 -0.045018744
-0.046786267 -0.068135217 -0.042304296
-0.041474011 -0.068443455 -0.042448107
0.043070417 -0.066906534 -0.042149492
0.047712546 -0.067452453 -0.042524002
-0.041004974 -0.063189 -0.041464373
0.043064963 -0.062921353 -0.041838385
-0.040580705 -0.056962457 -0.04313501
0.04286927 -0.05785457 -0.041413277
-0.041029669 -0.051649988 -0.042736601
0.042585652 -0.053123843 -0.041505609
-0.041164994 -0.047853246 -0.042481739
0.041990861 -0.047213111 -0.042133931
-0.04194656 -0.043539166 -0.044078387
0.039936136 -0.041380104 -0.04338935
0.041882962 -0.042592388 -0.042868581
-0.040692832 -0.037201729 -0.042750373
0.039721973 -0.037357111 -0.042442132
0.042046044 -0.038186304 -0.042294215
-0.039971691 -0.030275928 -0.04347989
0.039558839 -0.032945722 -0.041610055
0.041802153 -0.032315549 -0.042735171
-0.041614421 -0.027775185 -0.043119028
-0.039929427 -0.028274857 -0.043735698
0.039417274 -0.02699675 -0.043280773
0.041620776 -0.027952809 -0.042784449
-0.041496776 -0.02017604 -0.040160034
-0.03987084 -0.024815463 -0.043828242
0.039331432 -0.022489516 -0.043650661
0.041398019 -0.022022003 -0.042896561
-0.03978052 -0.019271936 -0.043960396
0.039117333 -0.016915178 -0.042222809
0.041211974 -0.016774593 -0.042799428
-0.041368976 -0.012364558 -0.043494802
0.038956761 -0.01186641 -0.041367494
0.041063957 -0.012013859 -0.043305814
-0.041287873 -0.0058989991 -0.042232856
-0.039529387 -0.0082309879 -0.042878378
0.038745597 -0.0071592396 -0.041940104
0.040723413 -0.0073513687 -0.042079464
-0.040831532 -0.0025402147 -0.042926364
-0.038779147 -0.0020090167 -0.044153769
0.038323916 -0.0018200161 -0.041883819
0.040367614 -0.0025614686 -0.042850196
-0.037829872 0.0022570889 -0.04319017
0.034809224 0.004546931 -0.04248438
0.037704874 0.0018030494 -0.042784821
-0.036145527 0.0061884173 -0.041386291
-0.03279544 0.0081526423 -0.041561659
0.033221465 0.0072243037 -0.042809565
0.036363531 0.005852601 -0.042169761
-0.030495156 0.010116106 -0.041905846
-0.028353555 0.012846333 -0.043317899
0.024803784 0.014555355 -0.041904144
0.027164476 0.013516366 -0.042656939
0.030481493 0.011993285 -0.042297844
-0.026005123 0.016451007 -0.042913683
-0.022285203 0.017842082 -0.042718869
-0.018334424 0.019569157 -0.042681992
0.018417709 0.018899722 -0.042983688
0.022415981 0.017383227 -0.042754993
0.026189839 0.015749618 -0.043417048
-0.02111177 0.021183154 -0.040035378
-0.016494745 0.02270147 -0.041215416
-0.012440014 0.023233708 -0.042885985
-0.007896374 0.023329789 -0.044426233
-0.002744131 0.02432562 -0.044935592
0.0031257344 0.023849135 -0.044462632
0.0082785487 0.023736792 -0.043293562
0.012063763 0.023646532 -0.041813578
0.01749819 0.021064429 -0.042632643
0.020460606 0.020610321 -0.04100607
-0.015288112 0.027596578 -0.040168028
-0.012003689 0.027266974 -0.042070307
-0.0076360488 0.027778106 -0.043904688
-0.0022016664 0.02775009 -0.044441137
0.0031193073 0.028054608 -0.043765716
0.0076824203 0.027447419 -0.042451959
0.012168732 0.026266826 -0.040728636
-0.011754776 0.032320689 -0.041658055
-0.0074569662 0.032719355 -0.043378282
-0.0029223366 0.032519665 -0.044011533
0.0026265699 0.032649327 -0.043313734
0.0075410143 0.03223487 -0.041505627
0.010978409 0.032616589 -0.040849242
-0.011505586 0.037521705 -0.040690023
-0.0078996141 0.036684733 -0.042535696
-0.0030217166 0.037216101 -0.043272845
0.0028003049 0.037542246 -0.042661753
0.0077972007 0.037844554 -0.041401085
0.01056762 0.037177663 -0.040231131
-0.011356942 0.041756291 -0.040484987
-0.0070902286 0.042505007 -0.041914236
-0.0016207002 0.04345309 -0.043210682
0.0016205639 0.042523995 -0.042696953
0.0069545764 0.042111129 -0.04134693
-0.010036351 0.045156583 -0.040701076
-0.0066207144 0.046391096 -0.041531675
-0.0014781113 0.046907756 -0.042811289
0.0016520828 0.046634726 -0.042067077
0.0065882541 0.047819983 -0.040677719
-0.0071791192 0.051502183 -0.04076625
-0.0022306505 0.052557129 -0.041110843
0.0017841567 0.052063208 -0.041353833
0.0054269442 0.053002134 -0.040340662
-0.0060785762 0.056915421 -0.040485244
-0.0016493654 0.058000997 -0.040993694
0.0017092518 0.05758113 -0.040682759
-0.0054298816 0.060224742 -0.040176611
-0.0012885402 0.062151004 -0.040538367
0.00035597742 0.061867695 -0.040421259
-0.0010936621 0.065235429 -0.040052906
-0.046834771 -0.068248466 -0.037833594
-0.041268915 -0.068026662 -0.037561551
0.043034524 -0.066779383 -0.037592839
0.047591589 -0.06728325 -0.037711725
-0.04063905 -0.063172884 -0.038450975
0.042861201 -0.063544676 -0.037839495
-0.041057155 -0.057205569 -0.03822514
0.042346854 -0.057439022 -0.038167987
-0.042179361 -0.051078964 -0.036575355
0.0424584 -0.053251218 -0.038515147
-0.040387195 -0.047815323 -0.037341487
0.03992743 -0.047131199 -0.036269087
0.041658644 -0.04768426 -0.038223676
-0.041166805 -0.043437317 -0.039087266
0.039693415 -0.040901765 -0.03746831
0.042030014 -0.042528719 -0.037248801
-0.040244438 -0.038497329 -0.03739465
0.039554741 -0.03675551 -0.037979499
0.041809469 -0.03710888 -0.037647154
-0.040142898 -0.032309454 -0.036277648
0.039418608 -0.032384139 -0.037770271
0.041604068 -0.032372192 -0.037370648
-0.040412214 -0.02863933 -0.038137518
-0.039985325 -0.026350008 -0.038984548
0.039245542 -0.027059145 -0.037274774
0.041428775 -0.027271798 -0.0379708
-0.041623406 -0.022333976 -0.035446715
-0.039934989 -0.02344395 -0.038930498
0.03927169 -0.024508083 -0.039819933
0.041251745 -0.02301278 -0.037220601
-0.04153515 -0.016606001 -0.03552362
-0.039841119 -0.018066218 -0.038802881
0.039013304 -0.018373612 -0.037027035
0.041112103 -0.018417522 -0.037708633
-0.041491419 -0.012684032 -0.035671838
-0.039743263 -0.013421438 -0.038628962
0.038847078 -0.012120174 -0.036885537
0.040923789 -0.012252431 -0.038093824
-0.041408274 -0.0070882593 -0.03632123
-0.039606992 -0.0076975971 -0.03836171
0.038633276 -0.0076433108 -0.036369417
0.040578522 -0.0071437317 -0.036473613
-0.040885348 -0.0025859077 -0.037412565
-0.038994431 -0.0021354146 -0.037144203
0.038720392 -0.0014563138 -0.036983591
0.040333737 -0.0032568166 -0.0372044
-0.037888203 0.0024183413 -0.037680861
0.034773737 0.0044383262 -0.038156942
0.037248038 0.0018274128 -0.037442263
-0.03675963 0.0056676441 -0.038210724
-0.033255722 0.0083217332 -0.036797985
0.032426015 0.0078399172 -0.036686257
-0.031001823 0.011237745 -0.03761531
-0.029130956 0.013387251 -0.037207175
0.028242208 0.012762969 -0.037496615
0.031094752 0.01155625 -0.037982456
-0.026579328 0.016688187 -0.037804306
-0.022848073 0.018360572 -0.038594596
0.019538132 0.019815709 -0.037527926
0.023059117 0.018186275 -0.037201457
0.025903938 0.016665954 -0.036839113
-0.02092687 0.022548877 -0.036209214
-0.017819436 0.023332017 -0.037873924
0.013556112 0.02366969 -0.038802292
0.016598569 0.023481043 -0.037086159
0.021295622 0.021089146 -0.037233625
-0.017166937 0.027851151 -0.037123118
-0.014340415 0.029340887 -0.039359111
0.012787402 0.028136548 -0.038591284
0.015672935 0.026221519 -0.036796629
-0.016659973 0.033002697 -0.036782227
-0.014529384 0.032813236 -0.039789721
0.009663335 0.033329479 -0.039733272
0.012408285 0.032391742 -0.037896797
0.015633892 0.031955846 -0.036059447
-0.015858017 0.037273291 -0.03654879
-0.013641346 0.037490029 -0.038814649
0.0090636592 0.037319195 -0.039368019
0.012049064 0.037563715 -0.037651561
0.015294684 0.036960229 -0.03508484
-0.01576549 0.042614199 -0.036252685
-0.013616242 0.043434907 -0.038435441
-0.0084501542 0.044179864 -0.039879691
0.0081006521 0.042418964 -0.038901925
0.012187215 0.043358922 -0.037507374
-0.015546147 0.04667322 -0.035513986
-0.013381665 0.047089592 -0.038028143
-0.007884616 0.04768154 -0.039476734
0.0045683845 0.04798444 -0.039750792
0.0079208659 0.047433756 -0.038237866
0.011860367 0.046847422 -0.037243228
-0.012787114 0.05273271 -0.036574818
-0.0083064418 0.052792348 -0.03937301
-0.0040991213 0.054593533 -0.039839566
0.0027720369 0.05266 -0.039559308
0.0076092212 0.052270785 -0.038131069
0.011251232 0.051901162 -0.036114894
-0.011719925 0.058031969 -0.037092324
-0.0079936087 0.058115669 -0.038582355
-0.0030632522 0.058208261 -0.039366741
0.0030171175 0.05888344 -0.038363207
0.0080483323 0.057759013 -0.037521623
0.010530231 0.057555377 -0.035765521
-0.012040178 0.062263206 -0.036372013
-0.0073523014 0.062763929 -0.03869205
-0.0030735636 0.062564358 -0.038832612
0.003958513 0.062968753 -0.03838928
0.0076235603 0.062064674 -0.036754906
0.01012639 0.061288003 -0.035558451
-0.011610637 0.067620642 -0.035953112
-0.0073377383 0.068278238 -0.037406124
-0.0023377417 0.068005778 -0.038435981
0.0028988891 0.067847431 -0.037459604
0.0067068236 0.067918785 -0.03606867
-0.010408117 0.070698619 -0.035402268
-0.0069252579 0.071060538 -0.037023149
-0.0023425198 0.071159177 -0.038014185
0.0022116082 0.071103543 -0.037730746
0.0063194106 0.071172141 -0.035804447
-0.04695759 -0.068429805 -0.032719318
-0.041815266 -0.068260111 -0.03273876
0.042855673 -0.067123845 -0.032656968
0.047511339 -0.067411818 -0.032155517
-0.04115776 -0.063350655 -0.033596028
0.042701423 -0.063571118 -0.033101473
-0.041461863 -0.057801694 -0.032688607
0.041978985 -0.057039093 -0.033361651
-0.041825682 -0.051822685 -0.032468401
0.041725792 -0.052464485 -0.03304702
-0.041329466 -0.047072791 -0.031874657
0.039808288 -0.046780206 -0.032955129
0.042114504 -0.047594305 -0.033185016
-0.042112187 -0.042948324 -0.033367593
0.039501905 -0.040551871 -0.032463141
0.041859284 -0.042049207 -0.033458829
-0.041313816 -0.037024476 -0.032786064
0.039367221 -0.036702838 -0.032925293
0.041633055 -0.037850276 -0.032015249
-0.041841663 -0.031831183 -0.034871902
0.039265554 -0.032738805 -0.032610431
0.041460805 -0.032907043 -0.032694731
-0.040081013 -0.027219195 -0.034137644
0.039146684 -0.027167657 -0.033623938
0.041261736 -0.027866581 -0.032200586
-0.039987665 -0.022168374 -0.034142476
0.038917944 -0.020485735 -0.030760391
0.041060507 -0.022373125 -0.03177689
-0.039912861 -0.016766792 -0.03267885
0.038945835 -0.01859773 -0.034123894
0.0409787 -0.017692026 -0.034064639
-0.039851271 -0.012719227 -0.032450106
0.038732752 -0.012049596 -0.032302991
0.040757544 -0.012291307 -0.032442953
-0.039799239 -0.0085816346 -0.031656593
0.038536876 -0.0076574404 -0.03287917
0.040362153 -0.0063242796 -0.03244248
-0.04070022 -0.00091908115 -0.032990355
-0.039123643 -0.0023563518 -0.032307252
0.038008031 -0.0022742434 -0.032703057
0.040266518 -0.0035959438 -0.03334181
-0.040250842 0.00033612852 -0.033646613
-0.037578836 0.0025201736 -0.032786287
0.034560144 0.0044927876 -0.030842364
0.036966961 0.0016226703 -0.032240063
-0.036152557 0.006595335 -0.0333855
-0.033252466 0.0081039472 -0.031992458
0.031633656 0.0086569674 -0.032051623
0.036101371 0.0059404913 -0.033221565
-0.031854689 0.011050123 -0.031975206
-0.029835878 0.012432447 -0.031233907
0.028412495 0.012910574 -0.032645252
0.030257409 0.011833658 -0.031645637
-0.026722033 0.016981805 -0.032516528
-0.022962039 0.019543849 -0.033056069
0.023591757 0.017936936 -0.033240847
0.026289232 0.016667441 -0.032503851
-0.021234946 0.023397865 -0.032515351
-0.019539256 0.023453999 -0.033245854
0.0180931 0.023684146 -0.032659356
0.021341572 0.022159593 -0.03187665
-0.020477489 0.026872369 -0.030963883
-0.019372238 0.028372884 -0.031628545
0.017952189 0.026832465 -0.032688726
-0.020183574 0.0314788 -0.031711295
-0.018589772 0.033156756 -0.032010838
0.014685139 0.033825845 -0.034304529
0.016826395 0.032735605 -0.032206956
-0.020015161 0.035020832 -0.030510962
-0.017957516 0.03763802 -0.032643527
0.01438392 0.037406359 -0.033655882
0.016091535 0.037567545 -0.031868894
-0.017307211 0.042363282 -0.03246865
0.014178809 0.04288312 -0.033103943
0.015762568 0.042340282 -0.031706247
-0.016455177 0.047769509 -0.031833462
-0.01456958 0.048595157 -0.034061734
0.013356483 0.048067853 -0.033263195
0.015296414 0.047581885 -0.030967565
-0.015715253 0.052091684 -0.032093689
-0.014180935 0.053818122 -0.03307246
0.012714729 0.052047424 -0.032817312
-0.015868898 0.057353619 -0.031179251
-0.014011239 0.05785504 -0.032335378
0.011946235 0.057370421 -0.032150485
-0.0152949 0.063114837 -0.03079972
-0.013434434 0.062167786 -0.032761239
0.0092730746 0.063045926 -0.033415113
0.011008286 0.062409882 -0.032301486
-0.015132749 0.065127723 -0.030358452
-0.012679886 0.068327107 -0.032721911
-0.0089223776 0.068928823 -0.034601294
0.0083465762 0.068618082 -0.033015005
0.010656706 0.068359174 -0.0315465
-0.012039658 0.07120496 -0.032201879
-0.0092772655 0.071209915 -0.034417175
0.0083314162 0.071002692 -0.03308836
0.010545237 0.070871107 -0.030700842
-0.047080483 -0.068281509 -0.027308898
-0.041942284 -0.068405241 -0.028091837
0.042658951 -0.066893637 -0.027551703
0.047362786 -0.066962004 -0.027377967
-0.041407295 -0.063241147 -0.028635817
0.042278692 -0.06386508 -0.027767027
-0.041837711 -0.057382762 -0.027785683
0.042128053 -0.057839006 -0.027148411
-0.042315897 -0.050428152 -0.027206887
0.041474696 -0.052714687 -0.028017841
-0.040543288 -0.046427779 -0.025805317
0.041873332 -0.046732765 -0.027410051
-0.041042481 -0.043164372 -0.027981898
0.041689817 -0.04267076 -0.027842142
-0.041505549 -0.036139995 -0.026958913
0.041455239 -0.037514444 -0.027133049
0.041342411 -0.03367636 -0.02824029
-0.040636837 -0.026664194 -0.028634161
0.039039671 -0.028081363 -0.029581683
0.041102584 -0.027174739 -0.027963821
-0.040638514 -0.022897368 -0.028962139
0.038876664 -0.021611774 -0.027579572
0.040975131 -0.02296018 -0.028404545
-0.041710019 -0.017567044 -0.026180297
-0.039979987 -0.015462461 -0.02760585
0.038666204 -0.015767671 -0.025839446
0.040791363 -0.018296788 -0.027301613
-0.041674729 -0.013197812 -0.025964687
-0.039915618 -0.011104501 -0.027730837
0.038665246 -0.012745913 -0.028822251
0.040588796 -0.012980098 -0.026337713
-0.041659981 -0.0071832519 -0.025768524
-0.039823338 -0.0071181995 -0.027254507
0.038421538 -0.0076620905 -0.02787431
0.040263064 -0.0067888964 -0.027148675
-0.04116739 -0.002510384 -0.02706253
-0.039234035 -0.0023742414 -0.028193077
0.03806122 -0.0017411653 -0.027697789
0.040096145 -0.0035859186 -0.026975578
-0.040158868 0.00081475801 -0.029072946
-0.037644736 0.0024656877 -0.027266147
0.034523532 0.004359989 -0.02583167
0.036879517 0.0020138489 -0.027316565
-0.035942525 0.0066533634 -0.028182702
-0.033628423 0.0081304079 -0.02741785
0.033292226 0.0071967714 -0.027442541
0.035218518 0.006942715 -0.029246746
-0.031625755 0.011474329 -0.027380819
-0.029927349 0.012827023 -0.025689904
0.028745402 0.013130764 -0.028065672
0.031892329 0.010411005 -0.027600745
-0.027138332 0.017084289 -0.027895428
-0.023846747 0.019527677 -0.027907014
0.023881977 0.017542906 -0.027037734
0.026806045 0.016829858 -0.027469641
-0.025215967 0.020572372 -0.026179081
-0.02148672 0.023454534 -0.027668662
0.019070765 0.023168987 -0.02747673
0.021124141 0.023237104 -0.027377272
-0.020781519 0.027171543 -0.028428122
-0.019949542 0.029890539 -0.029909233
0.018816184 0.027583834 -0.02763544
0.02012698 0.025623113 -0.026917513
-0.020557621 0.031963523 -0.027954856
-0.019678315 0.033231851 -0.029152345
0.017923424 0.033122078 -0.027712828
-0.020270213 0.037218407 -0.027224695
-0.019205168 0.037791871 -0.028252812
0.017399369 0.037135832 -0.027481193
-0.019293744 0.043564752 -0.026475711
0.016645782 0.042750679 -0.027171174
-0.0190375 0.046967383 -0.026104787
0.014833262 0.048745133 -0.027941087
0.016581336 0.048218712 -0.025844676
-0.017046893 0.052190255 -0.026706049
0.014503259 0.053122666 -0.02646797
0.015706096 0.050992977 -0.026453048
-0.01659295 0.05792984 -0.026805505
-0.01487669 0.059198767 -0.029408231
0.014047531 0.057730347 -0.026541039
0.015019735 0.055370275 -0.025362011
-0.016790785 0.062746488 -0.026254399
-0.014667999 0.062535122 -0.02784111
0.013447813 0.061963461 -0.026918
-0.016166368 0.067019209 -0.025879135
-0.013774932 0.068681605 -0.028131438
0.011747469 0.068386324 -0.027480554
-0.015175243 0.070572257 -0.026359182
-0.013969849 0.071148582 -0.028150277
0.011582159 0.071236476 -0.027073637
-0.047214001 -0.068190105 -0.022174802
-0.042239543 -0.0680032 -0.022770714
0.04226229 -0.066862285 -0.022401394
0.047200829 -0.06670928 -0.022571931
-0.041851174 -0.063261554 -0.022024736
0.042330284 -0.063141592 -0.021410119
-0.041932393 -0.057801843 -0.022082875
0.042068426 -0.057481218 -0.021293489
-0.041359775 -0.052091479 -0.022951594
0.039856076 -0.052085847 -0.024836831
0.042003125 -0.052190371 -0.02211535
-0.041185822 -0.047391932 -0.022401107
0.039504368 -0.045979246 -0.024718236
0.041771617 -0.047763392 -0.022462435
-0.04226245 -0.041809209 -0.022290487
0.039287876 -0.041168284 -0.024811929
0.041535761 -0.042717464 -0.022839645
-0.04217523 -0.036775708 -0.021906447
0.039177272 -0.037570491 -0.024685569
0.041340124 -0.038383458 -0.022344852
-0.041226011 -0.033144299 -0.022615597
0.039023835 -0.033518206 -0.024117095
0.041105133 -0.032043934 -0.02256972
-0.041968737 -0.028122375 -0.022284228
0.038861141 -0.028092988 -0.022618407
0.040943153 -0.027285358 -0.022736296
-0.04083297 -0.022245727 -0.021989767
0.038734481 -0.02312443 -0.020942487
0.040793445 -0.023534941 -0.021909222
-0.041131102 -0.018346764 -0.022069162
0.040582463 -0.017498069 -0.02122752
-0.041059792 -0.013607152 -0.022870038
0.038498823 -0.01200768 -0.023184456
0.040366694 -0.010826996 -0.020821482
-0.041162249 -0.0080468096 -0.021224806
-0.039888587 -0.0065932348 -0.022690374
0.038312674 -0.0081383334 -0.022509463
0.040177964 -0.0069318786 -0.021526825
-0.041196946 -0.0020148735 -0.021258717
-0.039260522 -0.0019460041 -0.022733582
0.038434267 -0.0016789727 -0.022262182
0.040023215 -0.004094407 -0.022069324
-0.040532842 0.00040358957 -0.022250045
-0.037985954 0.0025600446 -0.022309087
0.034405246 0.0044975751 -0.023753719
0.037305605 0.0025789449 -0.022248702
-0.035946641 0.0067978902 -0.023029055
-0.03380926 0.0083376504 -0.023014622
0.033159487 0.0075675263 -0.022520335
0.036150601 0.0056440686 -0.023707271
-0.031632368 0.011896789 -0.022426121
-0.029560488 0.013399871 -0.022683028
0.028663915 0.012874387 -0.022737442
0.031419609 0.011305717 -0.022406273
-0.027547579 0.01709743 -0.022538539
-0.023659475 0.01989032 -0.021709096
0.02362255 0.018542645 -0.022460889
0.026900019 0.016345231 -0.021453325
-0.025709523 0.020010043 -0.022881385
-0.021926148 0.023308994 -0.022408493
0.01919307 0.022845196 -0.022336202
0.021329533 0.022913752 -0.022536829
-0.021629337 0.027176639 -0.022778597
0.018896068 0.027600797 -0.02245627
0.020222828 0.02565293 -0.02384265
-0.020951927 0.033442587 -0.023766095
-0.019709446 0.032042116 -0.022211425
0.018498499 0.033362184 -0.023001622
-0.020391649 0.036851719 -0.02357447
-0.019374745 0.038031615 -0.021981563
0.017663727 0.037191279 -0.022883169
-0.019328753 0.042991862 -0.023721211
0.016973568 0.044034496 -0.023523131
-0.01881982 0.047407996 -0.024001999
0.01486689 0.047639433 -0.0211679
0.01691114 0.048084892 -0.024309052
-0.016948519 0.052604519 -0.022889782
0.014568745 0.053153027 -0.022348551
0.015849879 0.050878093 -0.024076963
-0.016279789 0.057607498 -0.023143385
0.013998524 0.058060735 -0.022768697
0.015030116 0.055246141 -0.024928035
-0.016175803 0.062487319 -0.023480004
-0.014402445 0.063092299 -0.021732174
0.013468997 0.062331263 -0.022872202
-0.015914977 0.0679662 -0.024447029
-0.014122806 0.068554863 -0.02235901
0.012067299 0.068702042 -0.023139143
-0.015136034 0.070617095 -0.02398557
-0.013847886 0.071162879 -0.022175137
0.011882936 0.071280852 -0.023438135
-0.047139555 -0.068506286 -0.017985543
-0.04199614 -0.068371326 -0.017854961
0.04234685 -0.066746771 -0.017469892
0.046864118 -0.066727653 -0.017219536
-0.041745551 -0.063288689 -0.017698128
0.042043589 -0.063020155 -0.017171858
-0.041689966 -0.056789562 -0.01747345
0.039900418 -0.057709355 -0.015088476
0.042058673 -0.056613363 -0.016106887
-0.042477027 -0.050687809 -0.018105978
0.039712328 -0.052395124 -0.019701397
0.04183799 -0.051945455 -0.017365539
0.039411448 -0.047294036 -0.019384839
0.041633118 -0.047516167 -0.018390413
-0.040870119 -0.042498674 -0.017158521
0.039127219 -0.041888554 -0.019203911
0.041409664 -0.042790264 -0.018486425
-0.042296469 -0.03783692 -0.016177032
0.03900709 -0.037853144 -0.018855747
0.041105002 -0.036315627 -0.017267572
-0.041505575 -0.032459453 -0.017551346
0.038799368 -0.032318641 -0.017798981
0.041010611 -0.033025563 -0.018262535
-0.041185196 -0.026301781 -0.017356537
0.038676269 -0.026827421 -0.016171018
0.040813714 -0.027742673 -0.017884329
-0.041342963 -0.022584951 -0.017917098
0.040558811 -0.022328936 -0.015802782
-0.041459482 -0.017398011 -0.017514758
0.038499411 -0.017196918 -0.018435905
0.040442064 -0.017089181 -0.017051157
-0.040818624 -0.012675082 -0.018061439
0.038358141 -0.013406572 -0.01645514
0.040300701 -0.012530062 -0.016688939
-0.040874299 -0.0073001296 -0.016734375
-0.039952338 -0.005957019 -0.018319959
0.03989793 -0.0057300348 -0.015462179
0.040128298 -0.00786437 -0.01731726
-0.041293636 -0.0020450416 -0.017269649
-0.039550908 -0.0028212171 -0.017243719
0.038970772 -0.0021352475 -0.01756783
-0.040433858 0.00093212072 -0.017441189
-0.038063735 0.0024090924 -0.017585855
0.034657896 0.0039705252 -0.017337795
0.037435103 0.002067436 -0.017535852
-0.036136758 0.0063790213 -0.018124819
-0.034012374 0.0075270347 -0.017731071
0.033377491 0.0075515383 -0.016722452
0.036209736 0.0053906739 -0.015806062
-0.031424791 0.012921887 -0.018145565
-0.029226769 0.014075318 -0.017139118
0.02833165 0.01252795 -0.017702958
0.031405717 0.011136204 -0.017343208
-0.02725544 0.017518183 -0.017664265
-0.024804955 0.018575275 -0.019717218
0.02290003 0.018084973 -0.017494058
0.027306344 0.015754469 -0.018021669
-0.02127737 0.023082536 -0.017541625
-0.019589553 0.023517521 -0.01594449
0.018222885 0.023345355 -0.016888047
0.021300068 0.022388063 -0.018402534
-0.020512 0.025857549 -0.017421693
-0.019582704 0.026447773 -0.016192337
0.017464951 0.02727806 -0.016659176
-0.020333692 0.031717058 -0.018728726
-0.01891759 0.032189813 -0.01720068
0.016899141 0.032380607 -0.016718494
-0.018273717 0.037901014 -0.017694702
0.014707683 0.039674576 -0.015562093
0.016211867 0.036774546 -0.017099468
-0.017389415 0.042068865 -0.017681673
0.014587882 0.043545812 -0.016218804
0.015417234 0.0425261 -0.017793696
-0.016723149 0.047522061 -0.017827168
-0.014403319 0.049814463 -0.016057717
0.014222775 0.047657512 -0.01703498
0.015469051 0.046560004 -0.018927786
-0.016117534 0.051904485 -0.018255882
-0.014452248 0.053419985 -0.016683528
0.013375059 0.052321203 -0.017481631
-0.015647708 0.057016939 -0.018325306
-0.013957687 0.057586502 -0.016938087
0.012766349 0.056862727 -0.017972594
-0.015162205 0.061664224 -0.018764999
-0.013425251 0.062716827 -0.016336257
0.009088235 0.063659549 -0.016118241
0.01111877 0.063030109 -0.017545015
-0.012726689 0.067660786 -0.016088804
-0.0094244732 0.069039129 -0.015349612
0.0089384392 0.068474412 -0.016163535
0.010545657 0.067074679 -0.018127529
-0.011634888 0.071211465 -0.017811418
-0.0093962522 0.070746876 -0.015528597
0.0048913304 0.070440054 -0.015027396
0.0080109853 0.071096271 -0.016780233
0.010465266 0.070975058 -0.019198798
-0.047323477 -0.068114199 -0.012490598
-0.042145628 -0.068074405 -0.012536104
0.042072069 -0.066620581 -0.011825241
0.046744213 -0.067073673 -0.012546485
-0.041767694 -0.062980168 -0.012486139
0.042182021 -0.062941626 -0.012912483
-0.041950893 -0.057261061 -0.012890925
0.039885368 -0.057741579 -0.014517877
0.042049427 -0.058178827 -0.012756517
-0.04170062 -0.052047234 -0.013201742
0.039580047 -0.052797742 -0.014563125
0.041682921 -0.052129578 -0.011983279
-0.04109427 -0.047256324 -0.013937856
0.039273076 -0.047961742 -0.01338101
0.041507483 -0.048344031 -0.01268629
-0.041864958 -0.04260388 -0.012457374
0.038986072 -0.041473743 -0.013396226
0.041331481 -0.044541087 -0.013064487
-0.041507304 -0.037590262 -0.011760094
0.038806424 -0.036852375 -0.012277738
0.041051745 -0.038530223 -0.012514956
-0.041522987 -0.031864081 -0.012853052
0.038633741 -0.032861494 -0.011906817
0.040827692 -0.032344207 -0.013150775
-0.042055145 -0.026838101 -0.012416178
0.038554292 -0.028655222 -0.010706731
0.040700953 -0.028509151 -0.013245463
-0.041488174 -0.022531273 -0.012361773
-0.041262504 -0.017868929 -0.012019338
0.038283318 -0.015736954 -0.011076101
0.04036396 -0.019124921 -0.012386917
-0.041372377 -0.012465893 -0.013653591
0.03823749 -0.010744533 -0.014663057
0.04015914 -0.01187053 -0.012406561
-0.040956542 -0.0070238318 -0.012266873
0.039191678 -0.0068651522 -0.012837041
0.040061396 -0.0090324469 -0.012090512
-0.041518021 -0.0024122361 -0.012010205
-0.039636206 -0.002526398 -0.012493451
0.039173275 -0.0024197323 -0.012476497
-0.040445294 0.0012285162 -0.012672211
-0.038067732 0.0031769974 -0.012465988
0.034283284 0.0043516266 -0.010966015
0.037782367 0.0019559998 -0.011989152
-0.036163319 0.0067727929 -0.012183789
-0.033131316 0.0094824424 -0.011532877
0.032871369 0.0080518732 -0.012224066
0.035577204 0.0061064223 -0.012974914
-0.031888787 0.01175127 -0.012710781
-0.029202485 0.013311875 -0.013796933
0.027973155 0.012586128 -0.012360765
0.031584859 0.010663684 -0.011836415
-0.027141033 0.0172821 -0.013132941
-0.02395813 0.018400414 -0.011915456
0.022538569 0.01850364 -0.012130561
0.02583275 0.016902637 -0.0122144
-0.021326071 0.021899097 -0.012919328
-0.017907983 0.023418974 -0.012118854
-0.014915969 0.024524862 -0.010007576
0.014224223 0.023497969 -0.010727881
0.0165432 0.023607841 -0.012750692
0.020895377 0.021903463 -0.013714068
-0.017333342 0.026367141 -0.012124819
-0.014871171 0.026511744 -0.010044537
0.014028764 0.026395908 -0.010984709
0.016166024 0.026821194 -0.013362205
-0.016460989 0.032098781 -0.012709116
-0.014325286 0.032579891 -0.010161075
0.013175352 0.032495707 -0.01149277
0.015773812 0.032148007 -0.01427188
-0.016187133 0.03741359 -0.013291424
-0.013267475 0.038340259 -0.010854527
0.0092702871 0.037596893 -0.010450047
0.012579643 0.037238423 -0.012116244
0.015082225 0.036871687 -0.014534879
-0.015371051 0.043534268 -0.013425186
-0.014049202 0.04337272 -0.011875568
0.0084013138 0.041894235 -0.010829566
0.011933915 0.042984921 -0.012340528
-0.015279475 0.046489231 -0.014124167
-0.013951514 0.047398705 -0.012316541
-0.0097989142 0.047241807 -0.010436983
0.0086532682 0.047428958 -0.011189562
0.011443907 0.047497265 -0.012315976
-0.012643763 0.051675253 -0.013057424
-0.0084721101 0.053117856 -0.01113642
-0.0041535711 0.054066751 -0.010109299
0.0031801576 0.053527743 -0.010487621
0.007946983 0.052558325 -0.011873837
0.011028715 0.05168429 -0.013494961
-0.01152387 0.057583772 -0.013666236
-0.0080640381 0.058147337 -0.011587575
-0.0020000439 0.057839971 -0.01057112
0.0027235406 0.058194183 -0.010952665
0.0078957304 0.0579594 -0.012942539
0.010812698 0.055380888 -0.014192974
-0.012093268 0.063460395 -0.014235258
-0.0077221682 0.062522843 -0.012071488
-0.0024859037 0.063418977 -0.010575745
0.001611307 0.063244216 -0.011393324
0.0087252324 0.063441947 -0.013837297
0.010050662 0.062801406 -0.014980132
-0.012188659 0.066808291 -0.014589565
-0.0074742176 0.068240114 -0.01332368
-0.0018635624 0.067947231 -0.010836189
0.0013853663 0.06754864 -0.011845126
0.0087261815 0.066812448 -0.014085205
-0.01039249 0.070572369 -0.014805755
-0.0073523312 0.071014315 -0.013647338
-0.0021884541 0.071382254 -0.012553035
0.0025162403 0.071293876 -0.013164372
0.0058347383 0.071065493 -0.0141143
-0.04732785 -0.06799753 -0.0073540593
-0.042151917 -0.067993782 -0.0074567315
0.041809473 -0.066763364 -0.0070457202
0.046710212 -0.066839613 -0.0078166351
-0.041718725 -0.063189134 -0.0078794323
0.039855912 -0.061587308 -0.0057533956
0.042047326 -0.063814037 -0.0071589448
-0.041877553 -0.057216242 -0.0069968244
