# .PCD v0.7 - Point Cloud Data file format
VERSION 0.7
FIELDS x y z
SIZE 4 4 4
TYPE F F F
COUNT 1 1 1
WIDTH 1373
HEIGHT 1
VIEWPOINT 0 0 0 1 0 0 0
POINTS 1373
DATA ascii
0.29581007 0.039731279 0.12499951
0.088228472 0.040669911 0.12773179
-0.19980204 0.045768812 0.12784922
-0.13368964 0.045819361 0.12751761
0.073775262 0.044561516 0.12452917
0.18736878 0.046006419 0.1271535
-0.20715536 0.048913825 0.12656401
-0.20282625 0.050138962 0.12747286
-0.13506675 0.04915395 0.12680709
0.18878753 0.048856396 0.12711233
0.22525966 0.049387228 0.12716755
0.28195217 0.051754184 0.12459308
-0.19736487 0.053325891 0.12549765
-0.13560301 0.053273715 0.12702647
-0.087786369 0.054133389 0.12720649
0.073518679 0.053456366 0.12796342
0.19219406 0.055105392 0.1268882
0.23059307 0.052634504 0.12789428
0.24373247 0.053948056 0.12661526
0.24995263 0.053043094 0.12626071
0.26109481 0.055614408 0.12793261
0.2707608 0.054424968 0.12410115
-0.20275782 0.057403404 0.12515664
-0.13663083 0.058180347 0.1260654
-0.12868911 0.058100328 0.12709612
-0.087244354 0.057182219 0.12799351
0.21622933 0.059485298 0.12630241
0.23857568 0.056659885 0.12400743
-0.092422411 0.063947007 0.12418869
-0.091644481 0.060432706 0.1240548
0.06798768 0.060636897 0.12744725
0.14331442 0.061470516 0.12420027
0.14949228 0.061415095 0.12553729
0.19911776 0.062350668 0.12434424
0.21315047 0.062107552 0.12527339
0.2324829 0.060530644 0.12668596
0.23690343 0.062517837 0.12767804
-0.09170305 0.064398907 0.12770405
0.13266629 0.067384519 0.12459902
-0.13127883 0.069136389 0.12416306
-0.094261162 0.070134364 0.12439707
0.1437407 0.070264399 0.12566914
0.15337624 0.07021255 0.12573904
0.23239207 0.070345834 0.12428199
-0.14441603 0.075892732 0.12408619
0.075320117 0.072828129 0.12469193
0.13419515 0.072411984 0.12517965
0.14528273 0.074531995 0.12453042
-0.14224787 0.077963069 0.12405339
0.15676515 0.079706512 0.1261469
0.23529862 0.078779794 0.12560065
0.24030915 0.078897312 0.12606737
-0.099228382 0.082091972 0.12636238
0.14958154 0.081614807 0.12580629
-0.10168633 0.089305781 0.1258553
-0.16139573 0.092802994 0.12558168
-0.14997806 0.094720721 0.12593561
-0.099638723 0.094833434 0.12487563
-0.17499799 0.099443525 0.12666808
-0.17024675 0.097671516 0.12447225
-0.16241115 0.098700061 0.12683564
-0.14777213 0.097256757 0.12612665
-0.14300326 0.099169947 0.12764819
-0.12377131 0.099458687 0.12681663
-0.11068623 0.09818311 0.12435415
-0.10438038 0.098201595 0.12557134
0.091391973 0.09901128 0.12702779
-0.17959943 0.10088395 0.12596841
-0.097108126 0.10100945 0.12652658
0.10157838 0.10121141 0.12595868
-0.22090912 0.10414495 0.12402965
-0.19424646 0.10487595 0.12610117
-0.17972104 0.10413244 0.12677242
-0.093252361 0.10798223 0.12796365
-0.090139017 0.10519353 0.12788261
-0.20108415 0.11090722 0.12632057
-0.19291429 0.11125819 0.12573831
-0.22576901 0.1141587 0.12515587
-0.15521948 0.11373136 0.12586588
-0.22068134 0.11700781 0.12643108
0.14388365 0.12070441 0.12798467
0.14200073 0.1285378 0.12406611
-0.15422705 0.13541645 0.126056
0.085797511 0.13291593 0.12496302
0.097932786 0.13472867 0.12622072
0.072285257 0.13751726 0.12678567
0.077386722 0.13930282 0.12765355
0.083635502 0.13769241 0.12737404
0.091196559 0.13719968 0.12759154
0.1112438 0.13800564 0.12759906
0.11411378 0.13671346 0.12435807
0.12010004 0.138071 0.12760882
0.066644631 0.14159988 0.12554957
0.082835592 0.14387111 0.12782651
-0.18800175 0.14581956 0.12475363
0.069835722 0.1455041 0.12770416
0.076527067 0.14659263 0.12768306
-0.14926478 0.1480802 0.12521711
0.06450206 0.14896333 0.12613203
-0.18219639 0.15471485 0.12729086
0.051546425 0.15253694 0.12654509
-0.20573813 0.15686052 0.1253252
-0.14096799 0.15938126 0.12546577
0.029005408 0.15644936 0.12505858
-0.14322495 0.1627423 0.12725869
-0.13351288 0.16362773 0.12655753
-0.13559435 0.16649246 0.12656899
-0.12817644 0.16540895 0.12754063
-0.12289637 0.16518316 0.12459571
0.025090205 0.16596645 0.12767953
-0.20428979 0.16910417 0.12608597
-0.20253238 0.17144412 0.1251113
-0.18163772 0.16863006 0.12463659
-0.13406816 0.17099373 0.12761131
-0.12768812 0.16946824 0.1274659
-0.12158361 0.17151245 0.12557162
-0.20078874 0.1729528 0.12500563
-0.19274069 0.17575213 0.125274
-0.12484793 0.17425871 0.12757255
0.019473815 0.17393683 0.1257778
-0.18593727 0.1764819 0.12469798
-0.12136374 0.17950858 0.12526104
-0.12097164 0.18386005 0.12582503
0.015257034 0.18598098 0.12776922
-0.11726671 0.19058511 0.12632743
-0.098143741 0.19582419 0.12631655
-0.087229118 0.19418822 0.12675717
-0.081465743 0.19320539 0.12660648
-0.074794002 0.19509649 0.12598237
-0.063854225 0.19924919 0.12777609
-0.059401616 0.19823934 0.12473283
0.0053082812 0.1986248 0.12657809
-0.11223052 0.20364329 0.12475638
0.0059902668 0.20025882 0.12783669
-0.040413681 0.20596609 0.12525634
-0.038518373 0.20911585 0.1278809
-0.027776247 0.20997608 0.12725106
-0.021722222 0.20977436 0.12709169
-0.081863478 0.21358711 0.1247121
-0.020028239 0.21224894 0.12649719
-0.10270943 0.21715494 0.1241651
-0.081760332 0.21913546 0.12491203
-0.0098960456 0.2350412 0.12401763
-0.066744491 -0.23623154 0.13191383
-0.074006818 -0.23565182 0.12842937
-0.06263043 -0.23322201 0.13014776
-0.081015766 -0.23104943 0.12876454
-0.076712169 -0.22684005 0.13094264
-0.081071883 -0.22176011 0.12999335
-0.057184312 -0.22200277 0.1300765
-0.092708372 -0.21963939 0.13197866
-0.057944693 -0.21744835 0.13166291
-0.11103592 -0.21054004 0.12965831
-0.053773768 -0.21014892 0.13181549
-0.041505922 -0.20010073 0.12894131
-0.042943582 -0.19551243 0.13096392
-0.17159772 -0.18804924 0.12930234
-0.042496286 -0.19065943 0.1310887
-0.17758653 -0.18460591 0.13019475
-0.042764708 -0.18588407 0.12869786
-0.19951956 -0.18000181 0.12870798
-0.19526224 -0.18258569 0.12991063
-0.035290789 -0.18064156 0.13108875
-0.18772006 -0.17904337 0.12919487
-0.047204189 -0.17729402 0.12830888
-0.040710565 -0.17951567 0.1292894
-0.19527347 -0.17292294 0.12916458
-0.18943098 -0.17224471 0.13009213
-0.032118022 -0.17453803 0.12983459
-0.041273076 -0.16877048 0.12839764
-0.19170639 -0.16712743 0.12982608
-0.041856267 -0.16454501 0.13104369
-0.036281671 -0.16693325 0.1295431
-0.19224341 -0.15917292 0.1289658
-0.043900415 -0.15938239 0.12917824
-0.19143546 -0.15205841 0.12893207
-0.045188237 -0.14905444 0.1309188
-0.18762335 -0.14201248 0.13197425
-0.039146129 -0.13312761 0.12879764
-0.18064751 -0.13133918 0.13140017
-0.1698866 -0.1279753 0.13122793
-0.16411151 -0.1150647 0.12958187
-0.03644412 -0.11271437 0.12828675
-0.16026023 -0.11156512 0.13147935
-0.15554446 -0.10917789 0.12835063
-0.037877273 -0.11112949 0.13151848
-0.076896869 -0.10509337 0.13170823
-0.084290765 -0.10010329 0.12851526
-0.080024078 -0.10121474 0.12807831
-0.071460217 -0.102449 0.12807646
-0.065366693 -0.10288604 0.12835339
-0.032545462 -0.10059055 0.12960678
-0.090288267 -0.097211957 0.12820701
-0.10837229 -0.088667363 0.13165517
-0.045687348 -0.088733166 0.13196643
-0.028421735 -0.08839111 0.13109098
0.21756245 -0.089516118 0.13004814
0.23069745 -0.084706068 0.12993167
-0.13920793 -0.083192028 0.1316282
-0.11481752 -0.0809597 0.13119312
-0.044171799 -0.080481514 0.12899393
0.21019411 -0.082534321 0.12930571
0.21430492 -0.083842397 0.13000239
0.24875511 -0.081372127 0.12843972
-0.13413194 -0.07901638 0.1285139
-0.11340004 -0.076443546 0.13071287
-0.069934748 -0.077169396 0.12834322
-0.066585176 -0.077662036 0.12835349
-0.061382551 -0.077461153 0.12851743
-0.025087969 -0.079403982 0.13153572
0.20957422 -0.076891907 0.12946564
0.23771077 -0.07826791 0.12909302
0.2542969 -0.077779941 0.1281935
-0.12864767 -0.075624824 0.13055541
-0.052439801 -0.072107807 0.13114578
-0.048018277 -0.074589431 0.12914208
-0.046994887 -0.072860703 0.13034968
-0.042674042 -0.075496711 0.13075048
-0.019232104 -0.073813334 0.12955061
0.21410479 -0.073148705 0.12984771
0.23149326 -0.075219654 0.13197657
0.23523319 -0.072906472 0.13032913
0.23650964 -0.07378158 0.12967241
-0.074620202 -0.069425054 0.1318114
-0.016360519 -0.068526208 0.12923425
0.0074851713 -0.069608666 0.12966827
0.20751853 -0.068256371 0.1304895
0.20993258 -0.070461482 0.12961504
0.24105035 -0.068235457 0.1293084
0.24857536 -0.071472205 0.1287168
0.25924775 -0.068528049 0.12824136
-0.12471829 -0.064787909 0.12989299
-0.10916591 -0.066600323 0.13047802
-0.080185913 -0.067300983 0.13143083
-0.013388107 -0.066288114 0.13059323
-0.0062683136 -0.067499541 0.13138871
0.20546322 -0.067146346 0.12969883
0.22052388 -0.066382669 0.13026489
0.24778524 -0.065101556 0.12886252
0.26211569 -0.0665242 0.12880322
0.21102294 -0.063451983 0.13055299
0.24053612 -0.06216028 0.12995224
0.25313655 -0.062901475 0.1295346
-0.090777062 -0.057019588 0.13038673
0.1943751 -0.059311401 0.12890837
0.21589804 -0.058313143 0.12993896
0.24253348 -0.059366904 0.13002831
0.25694177 -0.059552755 0.13175116
0.26732293 -0.059715118 0.13149431
-0.10447614 -0.05323647 0.13126463
-0.093760386 -0.052705426 0.13027632
-0.089358397 -0.052056756 0.13166045
0.022573596 -0.052513864 0.12858146
0.18955864 -0.054600593 0.13087389
-0.094619878 -0.049770433 0.1312784
0.087566592 -0.048744492 0.13028903
0.1871326 -0.050900586 0.12899315
0.2143122 -0.050007168 0.13177268
-0.11625981 -0.04610103 0.13125241
-0.086596273 -0.044654265 0.13173464
0.076106399 -0.047884449 0.13163528
0.18795887 -0.044261351 0.13065046
-0.11975975 -0.041730888 0.13018923
-0.093273491 -0.04090574 0.13146308
-0.088197038 -0.04197124 0.13122636
0.020353859 -0.042599738 0.12824875
0.069853485 -0.042735536 0.13143139
0.083229594 -0.041524079 0.13189635
0.095307104 -0.043667775 0.13108191
0.16784824 -0.040055942 0.1288451
0.17605723 -0.042086076 0.12962949
-0.12933435 -0.036607083 0.13150452
0.067308299 -0.037136082 0.12886535
0.074381486 -0.037994023 0.13154601
0.08866743 -0.037860617 0.13181078
0.17156315 -0.036461309 0.1296587
0.17681384 -0.038798701 0.13015537
0.19102137 -0.037209313 0.13105519
0.19377978 -0.039909314 0.1318225
-0.090453327 -0.032702152 0.1316018
-0.084087715 -0.035296317 0.13134781
0.067654803 -0.034785882 0.13143219
0.099338934 -0.034554038 0.12997207
0.16023731 -0.032675285 0.12919617
0.16597471 -0.035377167 0.12936628
0.17834866 -0.032192871 0.13034168
0.27654845 -0.035826795 0.13009594
-0.11846816 -0.029811993 0.12841514
-0.11287905 -0.030552668 0.13082649
-0.08866024 -0.028605444 0.12943973
-0.082110822 -0.029511236 0.12885593
0.064505771 -0.028827779 0.12843613
0.072824888 -0.030361526 0.13110475
0.18225753 -0.030788971 0.13154617
-0.08446338 -0.026237173 0.1283796
0.017385695 -0.026651394 0.12930407
0.069704331 -0.024753572 0.13149835
0.087465852 -0.026967218 0.1318529
0.16510251 -0.026841084 0.12961024
-0.11152886 -0.023399401 0.12829925
-0.10784665 -0.020626878 0.12808184
-0.088918537 -0.023279782 0.12963879
-0.078715652 -0.023548163 0.12911488
-0.071927115 -0.020677818 0.13093892
0.067945361 -0.021591933 0.12868822
0.096417829 -0.023410335 0.13145137
0.1663395 -0.020788342 0.12938079
0.28198069 -0.022648124 0.12907368
-0.15779762 -0.019230377 0.13052391
-0.15449071 -0.01669074 0.13031176
-0.10625409 -0.019685216 0.12950128
-0.081599645 -0.016043337 0.12857138
0.059922904 -0.019096294 0.12815355
0.07980027 -0.018006498 0.13178203
0.096545197 -0.019158395 0.129301
-0.084740281 -0.013069158 0.1296393
0.064498335 -0.012527401 0.12821355
0.070040151 -0.014718231 0.12831177
0.076869026 -0.014762066 0.12877636
0.089615799 -0.015920106 0.12897833
0.28600186 -0.012928995 0.12938268
-0.073896244 -0.01135572 0.12891695
0.05742814 -0.010916373 0.12823288
0.10213399 -0.0107975 0.12918109
-0.082642756 -0.0074805249 0.12972251
-0.076023988 -0.0069789528 0.12837397
-0.065221399 -0.0064212126 0.13092443
0.016560534 -0.0063140863 0.13064913
0.059900377 -0.0054633575 0.12810788
0.071459949 -0.0062472462 0.12838414
0.077822328 -0.0062382584 0.1287023
-0.15028614 -0.0015166225 0.12900209
-0.097613104 -0.00087602047 0.13058327
-0.069670737 -0.00137392 0.12922052
0.056153983 -0.0026477913 0.12801713
0.061176099 -0.0027881204 0.12807249
0.070266977 -0.0016152537 0.12825681
0.07441774 -0.0013716399 0.12857994
0.182715 -0.0015172501 0.13115042
-0.14935285 0.002112905 0.12950054
-0.083105423 0.00032555408 0.13171284
-0.077663139 0.0011520489 0.12889923
0.051674917 0.0014476 0.12803571
0.094356827 0.0026360026 0.12914509
0.10288879 0.001739346 0.12941541
0.10604022 0.0022042892 0.12834869
-0.14760134 0.0075751562 0.12835301
0.027046662 0.0040729372 0.13019468
0.075006232 0.0064207441 0.12840977
0.09379568 0.0076883426 0.12998769
0.10636432 0.0068959058 0.13024275
0.18299413 0.0043087462 0.12874505
0.28786206 0.0072221723 0.12930933
0.29188567 0.00606929 0.12894019
-0.092896566 0.010043737 0.1312364
0.037637431 0.0092161419 0.12937944
0.074011222 0.010252899 0.12852964
0.18815798 0.011611747 0.13187382
0.27816725 0.0099697839 0.13046686
-0.14405586 0.012539463 0.13025111
0.2715939 0.013901647 0.13104953
0.27372196 0.015460376 0.13043003
0.27711284 0.015327013 0.1300036
-0.1409307 0.017959613 0.12962012
-0.1323998 0.017154701 0.12831315
0.052730244 0.017410651 0.13062413
0.063430011 0.019545203 0.13146284
0.065538816 0.018797854 0.1284979
0.28482282 0.018682944 0.12971172
-0.13841087 0.023773003 0.12818016
-0.12883201 0.022296745 0.12833154
-0.087134957 0.022362206 0.13001701
0.19104588 0.021743031 0.13166504
0.29600534 0.02297671 0.1293534
0.27817503 0.025829965 0.13056964
-0.20668615 0.031297408 0.12986113
-0.13665119 0.029637169 0.1305709
-0.12666063 0.029621137 0.12937017
-0.08713983 0.031960256 0.13179222
0.18962073 0.028963761 0.12945727
0.2769748 0.028487375 0.13135964
0.28231701 0.029401165 0.13024352
0.28926277 0.031725895 0.12995169
-0.13266878 0.03526599 0.12840325
0.19102369 0.032430205 0.13076067
0.25157383 0.033298504 0.13162053
-0.20827261 0.039781209 0.12983964
-0.2035315 0.03668147 0.12903507
-0.090878606 0.037864476 0.12992737
0.090917476 0.039753608 0.1306362
0.20822647 0.037566621 0.13129641
0.26451865 0.039156921 0.13189001
0.28145304 0.039483469 0.13145855
0.28415841 0.039075531 0.13050857
0.29336086 0.036236096 0.12972504
-0.13496205 0.04019032 0.12878975
-0.091634013 0.040679827 0.12967026
0.19011241 0.042327132 0.129737
0.19751436 0.041606531 0.13078277
0.20264909 0.042225212 0.13078478
0.21489021 0.040578611 0.13142036
0.21736085 0.043995034 0.13094988
0.22618748 0.041811995 0.13100584
0.25303251 0.042545732 0.13116588
0.28462666 0.043964632 0.1294104
0.29165858 0.041080132 0.12858699
0.20509873 0.047662202 0.13052233
0.28076315 0.047806967 0.13135293
0.19494979 0.050695881 0.13021325
0.20054133 0.051457699 0.12997325
0.21011052 0.051950693 0.12940723
0.21984157 0.048909344 0.12940024
0.2539314 0.049005669 0.13083567
0.26236436 0.050001334 0.13128239
0.26951027 0.050022289 0.13052174
0.27698156 0.051416133 0.12911081
0.076192513 0.054734524 0.1319084
0.20619847 0.055471335 0.12855162
0.21475802 0.052692376 0.12836424
0.25561813 0.054787654 0.12919341
0.26641878 0.052363995 0.12956385
0.068700194 0.059285153 0.12899573
0.19746235 0.058461603 0.12834659
0.21304193 0.058529779 0.12873161
0.23624294 0.056574237 0.12956263
-0.088382266 0.061197836 0.12865598
-0.1385155 0.064193279 0.12893784
-0.12644163 0.064184137 0.13052875
-0.092889339 0.066158026 0.13070986
-0.1412493 0.070414826 0.12807354
-0.13501459 0.070877001 0.1299704
0.23622343 0.071136676 0.12981544
-0.14183746 0.075971156 0.12916197
-0.092037596 0.073691398 0.12802668
0.076635502 0.072466068 0.12991229
0.2300777 0.075682305 0.12930624
-0.093347654 0.077723838 0.12893055
0.23991184 0.076428793 0.12993796
-0.15351142 0.08665248 0.13108204
-0.14788704 0.084095739 0.12966573
-0.15888353 0.091006249 0.12945297
-0.14945421 0.088112667 0.12847614
-0.15282074 0.095531434 0.12878843
-0.17320193 0.098699965 0.1288005
-0.16733029 0.097329885 0.12841156
-0.11413856 0.099159837 0.13122642
-0.0931058 0.096301928 0.12890773
-0.20903529 0.10342494 0.12955298
-0.18188195 0.10136712 0.13062948
-0.17619164 0.10239008 0.12830612
-0.16085996 0.10187458 0.13194621
-0.14415163 0.10182116 0.13185765
-0.13487652 0.10036229 0.12867126
-0.21307863 0.10446013 0.13139749
-0.20113257 0.10627083 0.12809426
-0.19615562 0.10622252 0.13141504
-0.19259778 0.10445443 0.12928165
-0.18709405 0.10737619 0.13005303
-0.16149232 0.10529613 0.13016003
-0.098495655 0.10560574 0.12962595
0.11609346 0.10427327 0.12854044
-0.20446524 0.10871666 0.13141248
-0.16118486 0.1112752 0.12980911
-0.095104985 0.10923285 0.13034804
0.12157251 0.10952914 0.12943393
-0.22628154 0.1144779 0.13144889
-0.21527135 0.11521044 0.13133097
-0.20214824 0.11512789 0.12922485
-0.15752542 0.11481734 0.1315944
0.12024832 0.11544215 0.12861204
-0.20759442 0.11688882 0.12887911
-0.15681693 0.12443431 0.12814073
-0.15963417 0.13395384 0.13140124
-0.15834512 0.13947891 0.1312363
0.093766496 0.14373124 0.13118768
0.10042526 0.14207849 0.12829766
0.10846009 0.14087431 0.13098358
0.13848439 0.14129122 0.13075811
-0.19627827 0.14753591 0.12877767
0.044266816 0.14790308 0.12840542
0.072798617 0.14769191 0.13151051
0.079174079 0.14684828 0.13123451
0.089313835 0.14491406 0.12992699
-0.20237872 0.15129079 0.12863062
-0.18276154 0.14907248 0.13183333
-0.14907023 0.14900419 0.12919921
0.033988193 0.15176716 0.12812203
0.037411362 0.14854975 0.1308779
0.053950809 0.14894482 0.13114071
0.067198649 0.14905059 0.12925367
-0.1823146 0.15232114 0.12999286
0.03475206 0.15289761 0.13192597
0.060200669 0.15241589 0.1293619
-0.14671083 0.1569934 0.12885211
0.030601218 0.15743065 0.1293041
-0.2065874 0.16039944 0.12972838
-0.15426321 0.16189669 0.13139172
-0.1481465 0.16242258 0.12890258
0.030044314 0.16041592 0.12919533
0.040803246 0.16233256 0.13180406
-0.20615017 0.16469616 0.12925312
-0.18312888 0.16575184 0.13009322
-0.151256 0.1678213 0.13021936
0.026740106 0.16736174 0.12979697
0.037268445 0.16760805 0.13120252
-0.141653 0.16817772 0.12814981
0.024200298 0.17105277 0.12919287
-0.18996909 0.17455947 0.13008627
-0.14847994 0.17564124 0.13169907
-0.134326 0.17583612 0.12865902
0.024316238 0.17381501 0.12965083
-0.14063387 0.17859811 0.13074556
-0.12875289 0.17974007 0.12803397
-0.13861863 0.1812984 0.13116822
-0.13245352 0.18267532 0.12957428
0.028671607 0.18142298 0.13045853
-0.12867931 0.18698213 0.12969621
-0.13098231 0.18867289 0.13199484
-0.1211084 0.18926519 0.13061334
0.014392629 0.18961453 0.12843882
0.01780282 0.1892866 0.12922497
0.035431787 0.188247 0.13176385
-0.11969678 0.19457991 0.13016066
-0.080770545 0.19545652 0.13140054
0.022237286 0.1924046 0.1299414
0.03138129 0.19520277 0.13124391
0.03484929 0.19434616 0.13167986
-0.11965387 0.19912247 0.13122585
-0.097396307 0.19884449 0.12921718
-0.068058461 0.19880356 0.12974237
0.013957842 0.19718757 0.12882254
0.019813105 0.19686028 0.12954262
0.033482105 0.19856577 0.13142397
-0.11761869 0.20179521 0.12832379
-0.10947226 0.20287436 0.1314382
-0.10766161 0.20180187 0.13002332
-0.062659718 0.20171817 0.13151886
0.013946196 0.20229143 0.12868997
0.027214948 0.20105141 0.13081583
-0.053360511 0.20584181 0.13000846
-0.046195108 0.20792435 0.1286871
0.0079196217 0.20618677 0.12870072
0.020806801 0.20632437 0.13078687
-0.041117083 0.21094619 0.13167356
-0.00093381741 0.20864622 0.13132891
0.0096855648 0.2093126 0.13041824
-0.029281992 0.21282893 0.13089284
-0.02452472 0.22371922 0.13074976
-0.024947466 0.22573866 0.13031146
-0.0081420066 0.22692886 0.13088261
-0.013128114 0.22972113 0.13022952
-0.0087536201 0.23085727 0.13093461
-0.0075545376 0.22968437 0.13050482
-0.073220864 -0.23376998 0.13281621
-0.065170608 -0.22911671 0.13238551
-0.070264697 -0.22667088 0.13296044
-0.088061221 -0.22088529 0.1326907
-0.08018706 -0.22063179 0.13509661
-0.075238101 -0.2212975 0.13281152
-0.071986571 -0.22280574 0.13243401
-0.068496518 -0.21920773 0.13418654
-0.062557325 -0.21780208 0.13333172
-0.10241932 -0.21597494 0.13466799
-0.048347902 -0.20609364 0.13457608
-0.045627862 -0.20381406 0.13202427
-0.13864999 -0.19940767 0.134838
-0.1535572 -0.19538914 0.13595612
-0.16431576 -0.19067976 0.13233463
-0.17053644 -0.1858853 0.13406578
-0.16421485 -0.18444654 0.13484013
-0.03766745 -0.18289976 0.13460605
-0.1798913 -0.17983925 0.13410716
-0.17364489 -0.17885339 0.13480037
-0.032044947 -0.17698072 0.13240004
-0.18485367 -0.17587376 0.13253078
-0.033444166 -0.17582762 0.13499348
-0.1681691 -0.16984193 0.13577843
-0.18751857 -0.16765425 0.13479967
-0.18954855 -0.16164145 0.13398688
-0.1836614 -0.1570313 0.13592511
-0.045288268 -0.15780811 0.13411158
-0.18789899 -0.15316916 0.13453797
-0.18256554 -0.13856873 0.13403884
-0.040926922 -0.1370956 0.13458958
-0.17886604 -0.13165072 0.13411276
-0.16710244 -0.12825586 0.13542721
-0.03808834 -0.12995744 0.13368763
-0.16631167 -0.1237371 0.13410534
-0.035893437 -0.12311687 0.13560963
-0.16579807 -0.1192978 0.13491666
-0.038740214 -0.1163298 0.13443151
-0.16321544 -0.11359461 0.13438673
-0.15753411 -0.11034601 0.1352687
-0.045127053 -0.11065926 0.13592733
-0.041716259 -0.11012074 0.13508295
-0.15094048 -0.1059351 0.13386846
-0.05317286 -0.10657828 0.13267228
-0.04885776 -0.10706916 0.13503538
-0.038804196 -0.1074684 0.13372168
-0.050210394 -0.10134462 0.13236636
-0.034417339 -0.1008575 0.13233021
-0.14541028 -0.096741349 0.13200398
-0.099882461 -0.098496892 0.1345689
-0.044576861 -0.096325353 0.13487679
-0.042520121 -0.099767938 0.13576561
-0.0377784 -0.096605614 0.13547151
-0.14360523 -0.095673196 0.13536125
-0.034987729 -0.09522552 0.13461281
-0.14262274 -0.091723524 0.13247019
-0.031555973 -0.090794742 0.13362332
-0.11339256 -0.085167907 0.13240892
-0.043059457 -0.087623976 0.13391793
-0.037052814 -0.086320497 0.13591675
0.21961416 -0.085376464 0.13277023
0.22627579 -0.086612806 0.13229313
-0.11930305 -0.080577418 0.13356654
-0.038248807 -0.082105651 0.13523322
-0.033435173 -0.083777577 0.13567811
-0.030484727 -0.081411451 0.13509557
-0.12878612 -0.079826005 0.13443796
-0.12331905 -0.07674659 0.13382556
-0.040593132 -0.079545617 0.13341212
0.22045206 -0.077576995 0.13222176
0.22778174 -0.079068638 0.13272269
-0.12646756 -0.074349515 0.13217537
-0.11997589 -0.075702727 0.13396797
-0.038289174 -0.073224716 0.13372236
-0.033149119 -0.074302033 0.13594019
-0.028603446 -0.074603759 0.13572426
-0.025118418 -0.075424112 0.13357341
-0.021865727 -0.07271263 0.13412228
-0.11204956 -0.068176821 0.13245246
-0.05976069 -0.068743214 0.13401027
-0.00041236717 -0.068373233 0.13294309
0.0070943311 -0.069491714 0.13425532
0.011520489 -0.070137165 0.13360807
0.018152222 -0.068967797 0.13589962
0.22782727 -0.070938289 0.13336834
-0.11394752 -0.066685796 0.13347551
-0.069318935 -0.06607262 0.13460499
-0.06234232 -0.066393711 0.13520207
-0.045966823 -0.067609705 0.1321868
-0.0196865 -0.06584613 0.13526851
0.021279659 -0.066906393 0.13579015
0.22363739 -0.067686386 0.13200328
0.22865914 -0.066275246 0.13437951
-0.11880464 -0.062990502 0.13353617
-0.11549674 -0.062933974 0.13407367
-0.083821274 -0.060225621 0.1330321
-0.077889241 -0.062335934 0.13441543
-0.057179984 -0.061253469 0.13528764
-0.11858398 -0.057540424 0.1328032
0.025405554 -0.056012031 0.13555184
0.22092834 -0.058738913 0.13407494
0.23242475 -0.057642583 0.13409875
0.23706776 -0.059858542 0.13252907
0.26536945 -0.0585257 0.1333286
-0.084092379 -0.053029988 0.1335313
-0.078127913 -0.055986777 0.13527186
0.21095408 -0.05271706 0.13466537
0.21907699 -0.05320055 0.1340429
0.23561352 -0.054119784 0.13453704
0.25217533 -0.055343863 0.13327792
0.25836328 -0.052756876 0.13511613
0.2685979 -0.053739797 0.13563007
-0.10700572 -0.049417794 0.13358909
-0.10227567 -0.049284287 0.13237937
-0.078280888 -0.05167187 0.13493681
-0.072126515 -0.048330732 0.1357632
0.23038125 -0.051059023 0.13404199
0.24649788 -0.050760984 0.13522953
0.27011052 -0.049546611 0.13315399
-0.11196508 -0.047353853 0.1340545
-0.10384117 -0.046343617 0.13558073
-0.097695269 -0.045843504 0.13232808
-0.078872114 -0.045311444 0.1342383
0.091072738 -0.047031879 0.13204005
0.19265459 -0.04563605 0.13285933
0.21864828 -0.044215348 0.13231528
0.22229515 -0.044366885 0.13426106
0.23533784 -0.047964506 0.13412501
0.27259213 -0.044607587 0.13299093
-0.057993058 -0.040348865 0.13463767
0.21595883 -0.041050665 0.13503383
0.22921781 -0.041047789 0.1343838
0.23942849 -0.040982239 0.13436942
0.27235362 -0.042181317 0.13511534
-0.12608922 -0.039228667 0.13429508
-0.074293815 -0.038741317 0.13487521
-0.065113328 -0.037213933 0.13417974
0.020734763 -0.037014514 0.13282822
0.097012594 -0.037240513 0.13201046
0.21935895 -0.03885603 0.13585481
0.22507842 -0.036737382 0.1357135
0.22894503 -0.037478957 0.13252097
0.23299524 -0.036487989 0.13382334
-0.10858723 -0.034001164 0.13538823
-0.074415416 -0.033833161 0.1323466
0.092553325 -0.033854112 0.1336534
0.19962108 -0.032460392 0.13589467
-0.1262909 -0.028441345 0.13224483
-0.11708818 -0.030872267 0.13294874
-0.096890591 -0.029788593 0.13546523
-0.071366422 -0.028309748 0.13214977
-0.066192269 -0.030509192 0.13343588
-0.058076244 -0.031191753 0.13489193
0.077567153 -0.030842001 0.13386716
0.19681673 -0.030603608 0.13463734
0.27847719 -0.029516468 0.13548157
-0.10748006 -0.025357377 0.13455246
-0.096736915 -0.024166444 0.13394178
-0.067626745 -0.025137153 0.13274142
-0.061080772 -0.026229549 0.13385615
0.095436111 -0.026584115 0.13228333
0.19147873 -0.026605589 0.13481462
-0.10216382 -0.021383952 0.13337702
-0.057001475 -0.021154316 0.13400237
0.018345747 -0.023703022 0.13366313
0.1711567 -0.022038734 0.1325698
0.18054347 -0.023849439 0.13351664
0.2817252 -0.022089282 0.1342603
-0.16308561 -0.018454917 0.13240227
-0.15998918 -0.019531131 0.13321497
-0.091833085 -0.01603334 0.132898
-0.066978171 -0.018342098 0.13211779
0.01772836 -0.018208701 0.13569716
0.08842966 -0.018784508 0.13211368
0.17896076 -0.018221475 0.13495247
0.18229514 -0.019670887 0.13508895
0.28110263 -0.019408716 0.13545318
-0.165693 -0.015352618 0.13311695
-0.15796593 -0.015943432 0.13458152
-0.15327391 -0.014750176 0.13546775
-0.10073663 -0.01392644 0.13251914
-0.094006717 -0.015910121 0.13373657
-0.06300725 -0.014961747 0.13260102
-0.057763841 -0.013343925 0.13407713
0.017163049 -0.014124068 0.13502757
0.17790422 -0.015014989 0.13378191
0.28433451 -0.013680648 0.1337315
-0.16601063 -0.0097023146 0.13535492
-0.15988444 -0.01038823 0.13518648
-0.15191959 -0.0084181791 0.13417438
-0.094674155 -0.0096049374 0.13388571
-0.057975654 -0.0089795906 0.13326193
0.017341744 -0.0087798573 0.13497384
0.18243358 -0.010700698 0.13536449
0.28923997 -0.0089161173 0.13224101
-0.16364321 -0.006751331 0.13381808
-0.096139699 -0.0053635226 0.1330764
-0.086810127 -0.0053802207 0.13257384
-0.15340744 -0.0017020154 0.13565265
-0.087605879 -0.001008065 0.13384669
-0.063768312 -0.0016870748 0.13506636
0.020274343 -0.00031271848 0.13245188
0.28801909 -0.0033911916 0.13376085
-0.15368603 0.001149477 0.13325304
-0.15007427 0.001473704 0.13349578
-0.092525966 0.0037092781 0.13308114
-0.070924051 0.0024116023 0.13286173
0.18584509 0.00063044793 0.13328116
0.28016502 0.003045494 0.13305697
-0.15014136 0.0044883629 0.13439465
-0.14567204 0.0067532668 0.13247719
-0.089107491 0.0045979829 0.13410033
-0.082553662 0.0058150417 0.13453084
-0.076894075 0.0049252785 0.13471572
0.099725217 0.0064655594 0.13285966
0.18825577 0.0040809559 0.13496406
0.25353268 0.0068691773 0.13380121
0.26808873 0.0053986786 0.13565136
0.27250329 0.0060924552 0.13372202
-0.14505294 0.008088802 0.13585316
0.035537589 0.0086334329 0.13513188
0.078571714 0.0085717645 0.13246888
0.091979936 0.0096302861 0.13371739
0.09506432 0.0091480836 0.13282906
0.11013464 0.0089224884 0.1325032
0.24836393 0.011705111 0.13476631
0.25823265 0.0081589762 0.13503364
-0.087714978 0.013351566 0.13296156
0.041162942 0.013970419 0.13281959
0.050558586 0.015654976 0.13229284
0.10990052 0.014284706 0.13209616
0.25335982 0.014291433 0.13500445
-0.13899224 0.01612558 0.13369757
0.053738169 0.019755382 0.13466911
0.19295977 0.018662965 0.13482556
0.2472119 0.018854801 0.13272627
0.26239306 0.016081855 0.13487177
0.26596603 0.018397402 0.13385338
0.26871914 0.016118815 0.13345507
-0.12688197 0.020139515 0.13539432
-0.087182231 0.022976911 0.13255617
0.056387834 0.02056188 0.13365856
0.24349049 0.022450242 0.13293262
0.2595458 0.023202412 0.13484791
-0.13850908 0.024099898 0.13584647
0.2036747 0.026437718 0.13556123
0.20985389 0.026102711 0.13532189
0.2187366 0.025279313 0.13495165
0.2231136 0.026546419 0.13549525
0.24975201 0.02572694 0.13468912
0.19640103 0.029913323 0.13489071
0.21172675 0.030976867 0.13346466
0.22224554 0.031746425 0.13210787
0.24686676 0.031958055 0.13286494
0.27359733 0.029385373 0.13366733
-0.13464303 0.034324102 0.13536406
0.20212138 0.03207697 0.13394208
0.26074794 0.034683619 0.13504393
0.270134 0.035708401 0.13526499
0.27226093 0.034549024 0.13429263
0.27219674 0.039047539 0.13395834
-0.091885254 0.043123957 0.13331631
0.086636543 0.04360022 0.13385367
0.2500034 0.041560099 0.13337545
0.2786859 0.04325968 0.13394994
-0.13390686 0.046174735 0.13530636
-0.091360584 0.046464548 0.13254651
0.2503351 0.04680926 0.13212809
0.27192143 0.046635158 0.13347898
-0.12903848 0.051390316 0.13462518
0.081286766 0.04855768 0.13302554
0.22958645 0.049186613 0.13214089
0.24694243 0.05024872 0.13429965
-0.127717 0.055454459 0.13559139
0.23760365 0.055705026 0.13541904
0.24153812 0.054831095 0.13291247
-0.1366017 0.057653859 0.13232735
0.079915315 0.059025127 0.13517171
-0.13980849 0.067192011 0.13220109
-0.13260289 0.06477493 0.13567421
-0.12812419 0.064745955 0.13281628
0.080947205 0.064037606 0.13503157
-0.13909358 0.071470469 0.13505107
-0.093352512 0.071130924 0.13476086
0.076871857 0.068554662 0.1328816
-0.14131804 0.072881043 0.13310289
-0.092135355 0.075119622 0.13467224
0.080164708 0.075741105 0.13292909
0.23075637 0.073049501 0.13356549
-0.14605469 0.078128688 0.1323151
-0.095647886 0.079928257 0.13585819
-0.14968796 0.08279036 0.13360244
-0.14621469 0.081739545 0.13516587
0.08655332 0.08365763 0.13518704
-0.15125751 0.085257553 0.13538678
-0.10149924 0.085123762 0.13423337
0.088606775 0.087893471 0.13338147
-0.15637845 0.090899825 0.13549371
-0.15312636 0.089632891 0.1332224
-0.16217929 0.09330871 0.13345183
-0.097565942 0.093404494 0.13475154
-0.17385007 0.098902181 0.13361986
-0.16657726 0.097865805 0.13405386
-0.1636342 0.096415929 0.13530947
-0.15735582 0.097843051 0.13439651
-0.12516908 0.099651068 0.13241205
-0.094040304 0.096280523 0.13395807
-0.20468408 0.10386865 0.13427576
-0.18159589 0.10235862 0.13447267
-0.17515483 0.10198839 0.13330686
-0.15746336 0.10253578 0.13400608
-0.14679217 0.10224569 0.13451657
-0.134902 0.10083272 0.13356149
-0.10826311 0.10051445 0.13373134
-0.10520992 0.10136818 0.13365045
-0.22651863 0.10669257 0.13303147
-0.22310267 0.1045716 0.13349183
-0.21826969 0.1046785 0.13371328
-0.20048073 0.10682637 0.13203059
-0.19877495 0.10711321 0.1326049
-0.16193078 0.10576025 0.13489908
-0.09819869 0.10739941 0.13226779
-0.22754034 0.11045514 0.13316976
-0.22195387 0.11110413 0.13229735
-0.21057607 0.10902924 0.13385928
-0.21721125 0.11456864 0.13406816
-0.20877612 0.1145141 0.13305496
-0.20478836 0.11504842 0.13463856
0.11243661 0.11390922 0.13356283
-0.22156613 0.11729165 0.13283788
0.10534244 0.11647413 0.13364443
0.11947842 0.11697276 0.13393885
0.12558345 0.11781081 0.13343242
0.13627023 0.11949623 0.13394783
-0.16028398 0.12168329 0.13555695
0.10869385 0.12347764 0.13346271
0.10085315 0.12605457 0.13414381
0.11759109 0.12725511 0.13390489
0.10187928 0.1297138 0.13319117
0.11531588 0.13166878 0.13363697
0.12892495 0.13071153 0.13445236
0.14143169 0.12883998 0.13402189
-0.16256838 0.13343601 0.13595417
0.13610749 0.13415553 0.13418096
0.096372075 0.13795383 0.13550389
0.10267871 0.13986099 0.13320863
0.12006667 0.13719152 0.13360842
0.12924245 0.13999969 0.13313743
-0.16257153 0.14040831 0.13584547
0.094327942 0.14223959 0.13396671
0.099880852 0.14224771 0.1332991
-0.19280575 0.14661525 0.13384126
-0.18555547 0.14729244 0.13240536
-0.15725325 0.14711797 0.13420044
0.066584997 0.14687066 0.13304362
-0.19987078 0.1491791 0.13590311
-0.15775092 0.15055984 0.13484967
0.058499031 0.14892541 0.13248757
-0.20478034 0.15340135 0.13561003
0.056163322 0.15250078 0.13223873
0.061036501 0.15462281 0.13364486
-0.16148585 0.15825684 0.13572218
0.049658738 0.1576236 0.13441941
-0.18239395 0.16057795 0.13575706
-0.15951686 0.16372061 0.13353366
0.060748808 0.16388524 0.13375106
0.047200345 0.16646086 0.13269447
-0.16387069 0.16871874 0.13542646
0.047807679 0.16966644 0.13277474
0.055329427 0.17101401 0.13376334
-0.19519326 0.17540033 0.13342701
-0.18503739 0.17418863 0.1335616
-0.15885578 0.17221867 0.13431451
-0.15485449 0.17446977 0.13304392
0.04401575 0.17535844 0.13239655
0.051329181 0.17655538 0.13352966
0.062607884 0.17682205 0.13519046
-0.148009 0.18226673 0.13331613
0.039679691 0.18177241 0.13201836
-0.13872905 0.18705682 0.13318288
0.054167166 0.18611839 0.13483988
0.058862615 0.18594402 0.13481401
-0.13067178 0.18996698 0.13518724
-0.12071852 0.19073559 0.13440479
0.041982219 0.1883143 0.13261551
0.046275064 0.18862365 0.13321063
-0.10315863 0.19871554 0.13544624
-0.095353968 0.19836715 0.13589856
-0.083053097 0.19630507 0.13538086
-0.068715617 0.19961134 0.13438407
0.038226299 0.19938622 0.13282792
0.045873914 0.19600441 0.13331215
-0.11163706 0.20377573 0.13452195
-0.061934173 0.20293143 0.13497834
0.033565618 0.20227636 0.13228844
0.043182675 0.20116353 0.13494974
-0.056111921 0.20628613 0.13513847
0.029792227 0.20740761 0.13393685
0.032105442 0.2047132 0.13286291
-0.050256725 0.20857339 0.13292308
-0.041233186 0.21189296 0.13539611
0.016087379 0.21166062 0.13339323
-0.032040812 0.21355641 0.13386312
-0.023922412 0.21487024 0.13374017
-0.02140405 0.21811213 0.13496049
-0.0067029237 0.21712209 0.13526766
-0.007074093 0.2229109 0.13597873
-0.022855449 0.22537537 0.13518387
-0.015051151 0.22715649 0.13566899
-0.090993427 -0.21740143 0.13621143
-0.081267431 -0.21746722 0.13695009
-0.071304068 -0.21808064 0.13647547
-0.10542773 -0.2145167 0.13826758
-0.089429744 -0.21272236 0.1368693
-0.075080514 -0.21328178 0.1376894
-0.068648435 -0.21447101 0.13793559
-0.060626946 -0.21315442 0.13706984
-0.11003383 -0.21061002 0.13930279
-0.061523747 -0.21042547 0.1386874
-0.12280811 -0.20570715 0.13762921
-0.085973084 -0.2046587 0.13766024
-0.059567433 -0.20590603 0.13969441
-0.055261124 -0.20712173 0.138218
-0.069193631 -0.20298867 0.13897575
-0.14623122 -0.19614421 0.13621362
-0.082485177 -0.19725293 0.13906413
-0.15428589 -0.19384308 0.1392689
-0.14638504 -0.19559033 0.13831964
-0.047503226 -0.19342455 0.13883132
-0.15856364 -0.18926729 0.13832986
-0.046301126 -0.1896237 0.1381284
-0.046647385 -0.18451071 0.13839254
-0.15325917 -0.17749457 0.13993376
-0.034610514 -0.17944287 0.13961914
-0.15730128 -0.16771673 0.1366324
-0.035457291 -0.16741644 0.13662282
-0.17731699 -0.16002417 0.1360555
-0.16436632 -0.16366608 0.13696463
-0.15660167 -0.16262923 0.13995907
-0.046827972 -0.15638657 0.13848351
-0.17418882 -0.15402088 0.13968538
-0.046820264 -0.15225491 0.13607556
-0.18772298 -0.14870593 0.13660643
-0.18332516 -0.15145229 0.13931262
-0.17931281 -0.14432471 0.13972773
-0.18365616 -0.14241645 0.13750441
-0.17763336 -0.14053348 0.13797884
-0.0439623 -0.14110094 0.13882038
-0.16242257 -0.13988388 0.13849026
-0.041417677 -0.13751574 0.13665111
-0.17472176 -0.13439739 0.13743694
-0.164593 -0.13404815 0.137784
-0.037487078 -0.12403891 0.13867824
-0.16508979 -0.11634186 0.13851553
-0.16200925 -0.11337335 0.13961147
-0.13928057 -0.11218048 0.13975844
-0.062260963 -0.11298627 0.13852857
-0.15042727 -0.10815419 0.13636389
-0.13068695 -0.11123256 0.13971296
-0.084486157 -0.10901751 0.13815853
-0.078876734 -0.11141525 0.13908252
-0.057450403 -0.11069814 0.13631248
-0.050347179 -0.11106645 0.13644812
-0.14378861 -0.10667083 0.13808936
-0.13944362 -0.10636033 0.13902697
-0.13136086 -0.10484318 0.13965626
-0.13436384 -0.10283507 0.13958019
-0.12654497 -0.10301124 0.13956808
-0.14374083 -0.099326827 0.13676026
-0.13744602 -0.098036394 0.13862616
-0.10687646 -0.0974655 0.13770276
-0.12948164 -0.095150217 0.13941678
-0.12157948 -0.093885817 0.13927203
-0.1120227 -0.094484448 0.13826232
-0.13422568 -0.090334728 0.13842475
-0.13004892 -0.090387851 0.13930875
-0.11570312 -0.089060865 0.13665049
-0.13676147 -0.0866445 0.13744003
-0.12490748 -0.086367898 0.13940062
-0.12113132 -0.087555192 0.13883595
-0.13667984 -0.081621088 0.13606934
-0.0324311 -0.069247946 0.13758171
-0.024917929 -0.071325883 0.13672535
-0.041850045 -0.065168917 0.1372361
-0.024737442 -0.064635754 0.13792703
-0.037466291 -0.061534058 0.13745283
-0.031709868 -0.063329749 0.13788918
0.023869563 -0.063881308 0.13624863
0.025516262 -0.060478151 0.13632686
-0.071703956 -0.057699986 0.13609275
-0.067071795 -0.05934298 0.13618235
-0.062934823 -0.056470528 0.13633911
-0.05636692 -0.057079371 0.13672638
-0.037063863 -0.058895975 0.13893586
0.19954713 -0.057215933 0.13791275
0.20650329 -0.05721328 0.13975908
-0.044709299 -0.055287987 0.13706651
0.02522443 -0.055000812 0.13936649
0.19370404 -0.052074078 0.13626927
0.19738945 -0.052420132 0.13943444
-0.043973722 -0.051121786 0.13700369
0.024407316 -0.0502261 0.13616233
0.20266911 -0.051280629 0.13977207
0.20549817 -0.050976753 0.13917261
0.20885794 -0.050743535 0.13740337
0.25495562 -0.049542189 0.13603373
0.26219586 -0.04997899 0.13653146
-0.059444834 -0.04546399 0.13653263
-0.052535355 -0.046223 0.13680229
-0.045024555 -0.047449753 0.13858142
0.23869841 -0.046817333 0.13853467
0.24155839 -0.047872428 0.13919348
0.24951898 -0.044834007 0.13745661
-0.11398134 -0.042770214 0.13618501
-0.065625407 -0.0423407 0.13630806
-0.052152772 -0.042414933 0.13801007
0.19905502 -0.041920621 0.13831007
0.20543171 -0.042761549 0.13992468
0.21233088 -0.043259501 0.13717139
0.25943887 -0.041183736 0.13874702
-0.11024792 -0.036829907 0.13634376
-0.10461222 -0.039495397 0.13638972
0.021719616 -0.037454899 0.13659747
0.076940611 -0.037791569 0.13640504
0.085489869 -0.037063882 0.13928676
0.21279395 -0.036145203 0.13875502
0.25245124 -0.03991871 0.13898072
0.26311237 -0.039711181 0.1372555
-0.12562113 -0.035782639 0.13607116
-0.11847551 -0.032598339 0.13634905
0.074327447 -0.035481598 0.13628989
0.20740487 -0.032036074 0.13986824
0.22844568 -0.03320403 0.13918199
0.26556829 -0.035182893 0.13801597
0.2691485 -0.032604989 0.13779967
0.27425036 -0.035929199 0.13619936
-0.056328036 -0.030736795 0.13707209
0.084567055 -0.029612476 0.13622659
0.09191405 -0.030156596 0.13841361
0.21228877 -0.028912641 0.13984543
0.21705794 -0.028354393 0.13864018
0.26720443 -0.028029295 0.13901377
-0.10084479 -0.027787006 0.13645169
0.019109849 -0.024671001 0.1371492
0.20000008 -0.026693795 0.13634418
0.20492356 -0.026293565 0.13815781
0.22159711 -0.027392905 0.13897721
0.27236599 -0.024577701 0.13781925
0.27787271 -0.026972558 0.13646124
0.19424838 -0.023174031 0.13613316
0.20156191 -0.023710469 0.1373587
0.21207675 -0.022775944 0.13998717
0.21867892 -0.021842903 0.1396074
0.26985919 -0.02179593 0.13869289
0.27521741 -0.020266924 0.13713278
-0.053468283 -0.019179503 0.13686925
0.18637514 -0.016707463 0.13607958
0.19713891 -0.019802703 0.13721648
0.20695829 -0.01698203 0.13896957
-0.055474207 -0.013606259 0.13845828
0.19080186 -0.014130874 0.13711816
0.20347059 -0.01297186 0.1387938
0.26950333 -0.013112167 0.13954045
0.27325296 -0.014696277 0.13760445
0.18739665 -0.0095592514 0.13726288
0.1998983 -0.0090351524 0.13857916
0.21138269 -0.0082787387 0.13965055
0.26595408 -0.0086169373 0.13942723
0.27904081 -0.010070251 0.13783339
0.28633437 -0.0097149396 0.13644555
-0.055307928 -0.0066103791 0.13632515
0.019129315 -0.0041672206 0.13919321
0.1860303 -0.0066158297 0.13633247
0.19605505 -0.0053882129 0.13832262
0.26323858 -0.0052816775 0.13994984
-0.06216776 -0.0027044343 0.13693896
0.021894127 -7.4191958e-05 0.13765682
0.19338779 -0.00012732901 0.1381146
0.19946933 -0.0016318087 0.13854334
0.20642923 -0.0016585656 0.13913998
0.27359378 -0.0013948978 0.13621171
0.21620339 0.0018241296 0.13956189
0.23332787 0.0015901931 0.13986713
0.24980938 0.0038311798 0.13946706
0.26779759 0.00034029639 0.13708575
-0.074164599 0.0041492069 0.13939972
0.02802592 0.0044902652 0.1379068
0.032874301 0.0066957725 0.13762558
0.10628349 0.0076853195 0.13770062
0.19138996 0.0056460788 0.13668963
0.19887662 0.0050306343 0.13839413
0.20578128 0.0054598632 0.13874707
0.23158784 0.0059021488 0.13913946
0.23755948 0.0076491856 0.13845362
-0.084074654 0.011402784 0.13768829
0.038109947 0.01086038 0.13893566
0.2104823 0.010807086 0.13825938
0.21209365 0.008845944 0.1386866
0.21795693 0.0080340039 0.13900685
0.24681996 0.0092955539 0.13775708
0.077451691 0.014058615 0.13823864
0.19663927 0.012323911 0.13783869
0.20585948 0.012897777 0.13804781
0.21339315 0.01430227 0.13791692
0.21991 0.012309271 0.13853547
0.23467723 0.013482739 0.13827319
0.24013175 0.015388051 0.13614388
-0.13995922 0.016976016 0.13605911
-0.1316347 0.016648788 0.13619998
0.058377594 0.019252853 0.13897295
0.071660854 0.016744031 0.13731359
0.1064136 0.016371837 0.13937169
0.19721808 0.017917752 0.13726689
0.20433928 0.019972119 0.13691184
0.22097249 0.019663658 0.13678558
0.23494412 0.019366568 0.13941431
0.23890583 0.018042782 0.13644601
0.10233945 0.0219105 0.13784792
0.2134257 0.020936765 0.13659455
-0.12739901 0.02652988 0.13629042
-0.086536184 0.027952641 0.13827866
0.1013002 0.027993221 0.13639911
0.22891018 0.025603252 0.13984925
0.24031621 0.027824616 0.13866745
0.099934503 0.031852636 0.13928857
0.22680223 0.028202754 0.13821539
0.24362491 0.031335425 0.13697763
0.2269316 0.033765271 0.13611895
-0.090264373 0.036241163 0.13633406
0.095752746 0.036665574 0.13732441
0.23121212 0.039838724 0.13899311
0.24553847 0.038159631 0.13772088
0.090523854 0.04365208 0.13684863
-0.089628443 0.050707437 0.13705772
-0.13525704 0.055508077 0.13606395
-0.087882511 0.054335475 0.13978301
0.090598121 0.054332808 0.1399636
0.23664396 0.053979315 0.13898686
0.24458884 0.052295793 0.13878101
-0.1307757 0.05666177 0.13817433
0.066616058 0.058038998 0.13738993
-0.13413972 0.062578753 0.1360606
0.066563725 0.061533753 0.13888508
-0.093753889 0.067925178 0.13937698
0.087510355 0.064995147 0.13835257
0.083109073 0.072073832 0.13614185
0.08768978 0.079583317 0.13825102
-0.10099207 0.090723023 0.13895142
0.096767202 0.096794181 0.13835721
-0.11878011 0.10128599 0.13785258
-0.090569168 0.10134023 0.13780756
0.098166682 0.10183692 0.1379617
0.10844006 0.1027343 0.13714127
-0.16116621 0.1049331 0.13919973
-0.090311363 0.10466489 0.13824233
0.12108237 0.10660288 0.13964789
-0.10191094 0.10815997 0.13971841
-0.092958614 0.11119768 0.13824882
0.11022665 0.11165448 0.13634676
0.10037501 0.11497515 0.1363465
0.12713455 0.12107183 0.13729475
0.13392217 0.12123981 0.13748655
0.098272532 0.12558478 0.13811724
0.13661659 0.12680438 0.13704756
0.12089526 0.13133451 0.13689911
0.12778445 0.1386003 0.13675092
0.1301344 0.13667729 0.13713446
0.089093655 0.14020659 0.138907
-0.16182029 0.14621736 0.13775542
0.074526288 0.14563385 0.13707869
-0.18643197 0.14956428 0.13835195
-0.16272624 0.15191844 0.13768518
0.052998241 0.14881589 0.13623665
0.065424383 0.1484656 0.13636002
0.080491036 0.14923261 0.13974535
-0.19904378 0.15459421 0.13766555
-0.1816318 0.15239964 0.13683926
-0.20547228 0.15695958 0.13757087
-0.19078209 0.1570953 0.13914898
-0.18327597 0.15723179 0.13794473
0.066611558 0.15750106 0.13657777
0.07495749 0.1578761 0.13847484
0.082276061 0.15724108 0.13926911
-0.16350381 0.16106912 0.13712712
0.071233854 0.16041106 0.13763887
0.080803998 0.16396059 0.13890563
-0.20652494 0.16526033 0.13621643
-0.19756472 0.16652574 0.13755615
-0.18163095 0.16486302 0.13776845
0.072088808 0.16492799 0.1375806
-0.18495473 0.16967317 0.1385957
0.066417076 0.1695426 0.13638689
0.072990596 0.16986695 0.13720596
-0.20164713 0.1723765 0.1381336
-0.1986659 0.17439832 0.13756564
-0.19047077 0.17448862 0.13811336
-0.16667084 0.17247319 0.13714997
0.077902198 0.17383774 0.13916916
-0.16521034 0.17761029 0.13679279
0.068818308 0.17698531 0.13628803
0.066955559 0.18194218 0.13659398
-0.14623119 0.18431205 0.13702363
0.06877204 0.18445054 0.13770093
-0.13797888 0.18840007 0.13910307
0.060812328 0.19092542 0.1377936
0.065479442 0.18877886 0.13798065
0.054374173 0.19331925 0.13606559
0.059123326 0.19368076 0.13816811
-0.075946331 0.19748843 0.13650317
0.051165175 0.1998854 0.13769691
-0.11615781 0.20321894 0.13603225
-0.10887962 0.20272252 0.13956641
-0.063903563 0.2016228 0.13882898
-0.11386967 0.20406097 0.13852894
-0.053988308 0.20753993 0.13824627
0.037384462 0.20637959 0.13655524
0.040932618 0.20636573 0.1387392
-0.049306072 0.20944364 0.1380479
0.033464383 0.20969062 0.13791107
-0.041112553 0.21215998 0.13906161
-0.033327613 0.21392293 0.13782561
-0.024110626 0.21579064 0.13830015
0.016257344 0.2152784 0.13603091
0.023687806 0.2137479 0.13765866
-0.016048348 0.21900773 0.13866073
-0.0098712994 0.21785492 0.1387241
-0.0032168308 0.21658477 0.13747992
0.0023491592 0.2165726 0.13787852
0.0083638141 0.21721005 0.13977267
-0.10100268 -0.21491829 0.14013384
-0.10499711 -0.20944218 0.14367133
-0.097932756 -0.20996578 0.14115582
-0.12437467 -0.2048692 0.14121039
-0.12128443 -0.20437324 0.14285164
-0.11758253 -0.20665468 0.14201345
-0.05271538 -0.20414668 0.14123078
-0.13269478 -0.20154482 0.14069688
-0.13086201 -0.20079014 0.14283676
-0.095817447 -0.20301074 0.14216207
-0.060342658 -0.20112143 0.14244749
-0.14001051 -0.19776754 0.14082323
-0.05280301 -0.19619745 0.14306954
-0.04773381 -0.19742872 0.14001787
-0.15073086 -0.19289859 0.14173645
-0.14491403 -0.19443953 0.14026469
-0.14012925 -0.1953782 0.14176996
-0.092671007 -0.19599874 0.14286752
-0.091596849 -0.19311881 0.14383854
-0.080343433 -0.19365612 0.14176382
-0.072647497 -0.19352882 0.14239989
-0.063737713 -0.19206731 0.14297114
-0.15445577 -0.1902208 0.14045994
-0.13845588 -0.18900217 0.14363757
-0.052644987 -0.19101891 0.14115153
-0.081275716 -0.18759465 0.14343791
-0.062053137 -0.18737562 0.1410414
-0.049991269 -0.18606919 0.14061528
-0.14727455 -0.18028948 0.14294149
-0.08759433 -0.18026584 0.14331904
-0.076973386 -0.18245487 0.14376603
-0.066028282 -0.18138264 0.14179102
-0.058613736 -0.18192506 0.1404689
-0.09351182 -0.17987071 0.14297372
-0.049892504 -0.17934807 0.14327575
-0.040261846 -0.1799081 0.14098199
-0.032456409 -0.17882901 0.14218514
-0.15162499 -0.1723188 0.14038718
-0.063210107 -0.17417654 0.14151564
-0.14790127 -0.17026699 0.14270277
-0.074237943 -0.17034073 0.14198166
-0.029579671 -0.17185384 0.14132585
-0.14295681 -0.16066325 0.14230916
-0.042715821 -0.16273309 0.14019325
-0.15205838 -0.15956813 0.14160037
-0.13924024 -0.15909854 0.14154057
-0.15495424 -0.15259811 0.1416802
-0.14409059 -0.1523037 0.14272964
-0.05163721 -0.15492474 0.14328077
-0.16986053 -0.15109873 0.14176419
-0.16015442 -0.15099478 0.14172769
-0.15115298 -0.1506529 0.14193705
-0.060495503 -0.15041928 0.14251277
-0.054320049 -0.15177004 0.14182886
-0.050242413 -0.15189929 0.14053452
-0.17049411 -0.1478014 0.14001954
-0.14840575 -0.14588341 0.1424123
-0.14506607 -0.14479926 0.14035189
-0.13949263 -0.14402625 0.14297198
-0.071187459 -0.1470969 0.14387211
-0.06722983 -0.14419967 0.14183654
-0.15862225 -0.14192174 0.14216103
-0.054490514 -0.14249372 0.14226826
-0.04911118 -0.14239505 0.14134143
-0.15267357 -0.13943481 0.14040934
-0.14654942 -0.13934945 0.1407676
-0.069788143 -0.13646847 0.14377502
-0.061159272 -0.13987663 0.1421189
-0.16200167 -0.13200571 0.14141043
-0.15689084 -0.13503379 0.14007865
-0.066708699 -0.13328132 0.14288902
-0.062398117 -0.13286668 0.14164089
-0.052760914 -0.13469474 0.14216299
-0.047020633 -0.1334779 0.14149433
-0.04334373 -0.13406922 0.14028656
-0.055822127 -0.13011633 0.14208792
-0.048032079 -0.13059938 0.14176033
-0.04995111 -0.12731646 0.1419078
-0.040875953 -0.12445173 0.14052656
-0.16532113 -0.12283753 0.14219323
-0.1337875 -0.12017398 0.14019589
-0.12506045 -0.12213187 0.14348039
-0.055205639 -0.12213194 0.14164896
-0.14411461 -0.11764834 0.14293677
-0.13963793 -0.11990887 0.14194997
-0.071301877 -0.11622672 0.14272796
-0.066637032 -0.11747207 0.14316787
-0.058047097 -0.11679658 0.14086889
-0.051677033 -0.11917599 0.14185935
-0.043186914 -0.11965432 0.1412611
-0.15618737 -0.11229052 0.14061369
