# .PCD v0.7 - Point Cloud Data file format
VERSION 0.7
FIELDS x y z
SIZE 4 4 4
TYPE F F F
COUNT 1 1 1
WIDTH 1595
HEIGHT 1
VIEWPOINT 0 0 0 1 0 0 0
POINTS 1595
DATA ascii
-0.469511 0.083362 -0.114434 
-0.429939 0.030570 -0.061816 
-0.432270 0.036990 -0.068429 
-0.432909 0.039858 -0.071418 
-0.404341 0.040506 -0.074581 
-0.430175 0.059811 -0.092839 
-0.396962 0.019655 -0.053084 
-0.379183 0.016871 -0.051669 
-0.398574 0.036974 -0.071331 
-0.361670 0.011103 -0.047062 
-0.354285 0.036403 -0.063393 
-0.363162 0.031007 -0.059398 
-0.376086 0.032312 -0.060618 
-0.372094 0.027868 -0.057137 
-0.407135 0.035341 -0.063467 
-0.434312 0.037906 -0.065895 
-0.450064 0.034360 -0.063438 
-0.346330 0.020256 -0.050857 
-0.361500 0.014070 -0.046362 
-0.386311 0.024614 -0.054878 
-0.394461 0.015704 -0.048172 
-0.416960 0.025750 -0.056267 
-0.334677 0.012464 -0.044676 
-0.355440 0.008563 -0.042030 
-0.393551 0.012497 -0.045694 
-0.334895 -0.006692 -0.029968 
-0.359216 0.037190 -0.063932 
-0.329359 0.035451 -0.060950 
-0.467496 0.036653 -0.059854 
-0.361755 0.034571 -0.056823 
-0.469911 0.026387 -0.032226 
-0.435114 0.028093 -0.037211 
-0.467805 0.029721 -0.041146 
-0.442459 0.034299 -0.053673 
-0.465841 0.035526 -0.056656 
-0.403324 0.029331 -0.040907 
-0.384038 0.032652 -0.050007 
-0.403710 0.033464 -0.051928 
-0.337382 0.033466 -0.052757 
-0.386718 0.029700 -0.040515 
-0.471163 0.035886 -0.051340 
-0.455024 0.033248 -0.045968 
-0.464462 0.031454 -0.041931 
-0.450990 0.028002 -0.034759 
-0.471420 0.025308 -0.028574 
-0.409962 0.034470 -0.049452 
-0.393903 0.032147 -0.044760 
-0.393326 0.029738 -0.039588 
-0.368095 0.032240 -0.045449 
-0.389783 0.034990 -0.050803 
-0.428441 0.025567 -0.053195 
-0.403961 0.027225 -0.051589 
-0.432040 0.034781 -0.051197 
-0.351576 0.032657 -0.047708 
-0.437882 0.021964 -0.054312 
-0.361082 0.033805 -0.043484 
-0.467175 0.073670 -0.003495 
-0.453576 0.058943 -0.017855 
-0.470960 0.062905 -0.013805 
-0.441904 0.052181 -0.024522 
-0.474128 0.045367 -0.030641 
-0.442217 0.031272 -0.044643 
-0.462391 0.021668 -0.053611 
-0.424080 0.062731 -0.014611 
-0.418736 0.049702 -0.027225 
-0.414922 0.046210 -0.030637 
-0.409636 0.034582 -0.041900 
-0.417439 0.029654 -0.046537 
-0.396310 0.045611 -0.031468 
-0.366994 0.043332 -0.034061 
-0.396201 0.036932 -0.039822 
-0.352277 0.043830 -0.033782 
-0.335452 0.088813 -0.000192 
-0.345649 0.081742 -0.004845 
-0.379134 0.089556 0.003372 
-0.390554 0.081470 -0.001964 
-0.417039 0.084551 0.002188 
-0.414043 0.075900 -0.004567 
-0.457661 0.081084 0.002355 
-0.327678 0.074762 -0.011364 
-0.355825 0.066367 -0.015785 
-0.368102 0.070395 -0.011892 
-0.376235 0.067089 -0.013835 
-0.414045 0.065272 -0.012613 
-0.328653 0.058477 -0.023625 
-0.363547 0.059282 -0.020617 
-0.381786 0.062307 -0.017074 
-0.330617 0.043843 -0.034569 
-0.449576 0.056670 -0.029408 
-0.449230 0.058704 -0.026956 
-0.473656 0.060898 -0.021284 
-0.444329 0.070535 -0.013046 
-0.471403 0.072092 -0.007832 
-0.468980 0.072978 -0.007042 
-0.470523 0.077889 -0.000831 
-0.431538 0.065761 -0.020461 
-0.410409 0.073093 -0.014050 
-0.413080 0.078426 -0.007183 
-0.410484 0.083270 -0.001560 
-0.436757 0.083601 0.002052 
-0.400619 0.073910 -0.014242 
-0.371248 0.084865 -0.004394 
-0.387712 0.086430 -0.000464 
-0.342196 0.095150 0.004673 
-0.338847 0.050563 -0.031010 
-0.359210 0.053669 -0.029274 
-0.371992 0.048150 -0.033975 
-0.381208 0.058318 -0.026396 
-0.431129 0.046779 -0.036989 
-0.419243 0.056974 -0.028693 
-0.447402 0.048449 -0.036231 
-0.337899 0.066456 -0.018657 
-0.356028 0.071172 -0.015599 
-0.364501 0.063304 -0.021979 
-0.366685 0.071857 -0.015420 
-0.407130 0.063907 -0.022918 
-0.333607 0.075359 -0.011613 
-0.354460 0.083321 -0.006129 
-0.374507 0.078065 -0.010865 
-0.349124 0.086092 -0.003804 
-0.471999 0.048191 -0.037827 
-0.414490 0.047786 -0.036108 
-0.471608 0.047455 -0.038171 
-0.379452 0.046897 -0.035372 
-0.428677 0.048717 -0.036202 
-0.395175 0.051027 -0.034563 
-0.456242 0.052416 -0.035988 
-0.443486 0.038315 -0.026533 
-0.416858 0.044941 -0.029951 
-0.446953 0.047028 -0.032110 
-0.397178 0.046037 -0.030086 
-0.368730 0.051193 -0.030675 
-0.380840 0.047046 -0.029568 
-0.443926 0.037388 -0.025665 
-0.341193 0.051527 -0.031774 
-0.463560 0.058044 -0.034851 
-0.455931 0.052371 -0.032226 
-0.459425 0.046194 -0.029544 
-0.451093 0.042936 -0.027978 
-0.464430 0.035368 -0.024827 
-0.411731 0.059365 -0.034661 
-0.401527 0.053090 -0.031730 
-0.418693 0.046279 -0.028972 
-0.372582 0.058542 -0.033711 
-0.449433 0.065207 -0.038085 
-0.331482 0.101297 -0.072183 
-0.363430 0.090435 -0.061404 
-0.401215 0.085884 -0.056927 
-0.402290 0.078228 -0.049294 
-0.427444 0.071675 -0.042801 
-0.331680 0.086275 -0.057205 
-0.333589 0.078586 -0.049541 
-0.418511 0.068341 -0.039462 
-0.328047 0.066933 -0.037912 
-0.461643 0.097003 -0.075916 
-0.458524 0.093412 -0.070911 
-0.470322 0.091507 -0.069352 
-0.451087 0.086790 -0.061546 
-0.465745 0.080097 -0.053887 
-0.446809 0.081888 -0.054714 
-0.460814 0.076920 -0.049283 
-0.432064 0.100639 -0.078318 
-0.416855 0.095773 -0.070642 
-0.435085 0.087597 -0.061311 
-0.404566 0.093809 -0.067045 
-0.426348 0.083415 -0.055069 
-0.382202 0.100480 -0.074048 
-0.367952 0.097860 -0.069423 
-0.399642 0.090022 -0.061635 
-0.361105 0.100650 -0.072556 
-0.327044 0.082260 -0.055538 
-0.358361 0.085796 -0.060605 
-0.396142 0.091224 -0.067770 
-0.396401 0.092402 -0.068854 
-0.434542 0.093950 -0.072522 
-0.331743 0.092292 -0.064914 
-0.364217 0.101720 -0.075391 
-0.385705 0.095189 -0.070746 
-0.336132 0.104206 -0.075978 
-0.454606 0.080080 -0.057979 
-0.453454 0.080792 -0.058748 
-0.457015 0.087101 -0.065871 
-0.459371 0.090011 -0.069173 
-0.455675 0.091252 -0.070474 
-0.406438 0.079002 -0.055680 
-0.417304 0.081470 -0.058682 
-0.413827 0.083024 -0.060338 
-0.363272 0.076963 -0.052421 
-0.365441 0.083347 -0.030355 
-0.365910 0.081384 -0.034134 
-0.381029 0.078738 -0.040650 
-0.417954 0.075959 -0.049563 
-0.447504 0.076565 -0.051315 
-0.334000 0.079280 -0.034998 
-0.372316 0.077738 -0.041695 
-0.382002 0.078018 -0.042116 
-0.365298 0.074457 -0.047245 
-0.452075 0.077940 -0.050584 
-0.338478 0.072987 -0.058276 
-0.337721 0.077141 -0.046886 
-0.398383 0.074558 -0.058226 
-0.409375 0.076039 -0.054962 
-0.458566 0.076133 -0.058183 
-0.328629 0.081572 -0.034150 
-0.360725 0.079607 -0.041784 
-0.391173 0.078748 -0.046280 
-0.366388 0.083569 -0.031371 
-0.454823 0.088620 -0.059423 
-0.428232 0.081021 -0.059308 
-0.454108 0.081580 -0.059337 
-0.357762 0.074905 -0.059174 
-0.374505 0.079041 -0.059921 
-0.453437 0.062119 -0.094947 
-0.466311 0.067351 -0.090687 
-0.450886 0.070855 -0.083735 
-0.440996 0.073741 -0.078489 
-0.471711 0.076235 -0.080648 
-0.456638 0.083940 -0.068574 
-0.453173 0.087255 -0.063894 
-0.437529 0.069069 -0.083662 
-0.431261 0.070173 -0.081231 
-0.423654 0.072683 -0.076838 
-0.403027 0.074419 -0.071180 
-0.426402 0.084786 -0.062376 
-0.390209 0.067179 -0.077926 
-0.368587 0.073127 -0.066904 
-0.384856 0.078372 -0.063206 
-0.342819 0.070537 -0.065707 
-0.413781 0.062080 -0.088232 
-0.461190 0.104969 -0.056369 
-0.445259 0.091342 -0.066404 
-0.462098 0.092098 -0.068837 
-0.446232 0.081185 -0.076290 
-0.469476 0.081315 -0.080519 
-0.440133 0.066072 -0.089586 
-0.459103 0.065844 -0.093357 
-0.409023 0.090670 -0.060259 
-0.402389 0.082745 -0.066587 
-0.437095 0.077883 -0.077733 
-0.421175 0.069467 -0.082792 
-0.411532 0.063138 -0.087032 
-0.386147 0.079361 -0.066778 
-0.367480 0.072487 -0.069849 
-0.392002 0.072596 -0.074338 
-0.350972 0.068621 -0.070450 
-0.402220 0.087969 -0.061394 
-0.474371 0.074342 -0.069888 
-0.454201 0.080414 -0.066572 
-0.464513 0.089402 -0.062966 
-0.425326 0.094168 -0.059607 
-0.470313 0.104483 -0.056542 
-0.385403 0.065024 -0.071091 
-0.404241 0.074027 -0.067755 
-0.399225 0.086293 -0.062214 
-0.340223 0.067750 -0.068433 
-0.326218 0.010319 -0.098824 
-0.334944 0.019460 -0.094148 
-0.365750 0.025724 -0.091799 
-0.391977 0.037423 -0.086334 
-0.407700 0.046580 -0.081890 
-0.435267 0.061667 -0.074626 
-0.461303 0.061912 -0.075391 
-0.339149 0.028926 -0.089138 
-0.343729 0.038677 -0.083987 
-0.380579 0.043129 -0.082834 
-0.385956 0.057835 -0.075012 
-0.426690 0.065223 -0.072394 
-0.353141 0.045994 -0.080327 
-0.345396 0.056400 -0.074394 
-0.376458 0.058394 -0.074380 
-0.332368 0.053630 -0.075453 
-0.473954 0.063741 -0.074698 
-0.431031 0.045962 -0.082981 
-0.465078 0.061039 -0.075939 
-0.385591 0.026432 -0.092094 
-0.353264 0.055700 -0.074197 
-0.356818 0.044405 -0.080702 
-0.369953 0.049407 -0.078425 
-0.385686 0.050939 -0.078210 
-0.413835 0.060021 -0.074254 
-0.420312 0.050086 -0.080113 
-0.458788 0.057076 -0.077759 
-0.331532 0.040409 -0.081912 
-0.350661 0.035165 -0.085650 
-0.370421 0.038452 -0.084612 
-0.368493 0.031042 -0.088704 
-0.432390 0.047109 -0.082285 
-0.341363 0.022907 -0.092169 
-0.356063 0.016425 -0.096422 
-0.376977 0.028099 -0.090709 
-0.333351 0.003515 -0.102756 
-0.448702 0.060112 -0.074993 
-0.414306 0.059415 -0.074182 
-0.466266 0.062372 -0.074866 
-0.356180 0.058317 -0.072789 
-0.369584 0.049838 -0.084673 
-0.392363 0.055091 -0.078568 
-0.408162 0.056229 -0.077802 
-0.338380 0.057220 -0.072862 
-0.471727 0.058427 -0.076248 
-0.367768 0.052071 -0.073427 
-0.381485 0.050585 -0.080362 
-0.453931 0.055748 -0.075714 
-0.396902 0.050549 -0.082971 
-0.405007 0.052325 -0.074127 
-0.326351 0.036431 -0.061682 
-0.325920 0.054309 -0.062383 
-0.325921 0.049556 -0.067445 
-0.326496 0.054022 -0.040847 
-0.326715 0.037628 -0.045322 
-0.360992 0.046010 -0.071533 
-0.327020 0.045151 -0.070662 
-0.443413 0.043483 -0.070857 
-0.421053 0.038520 -0.065658 
-0.335517 0.034602 -0.059003 
-0.349663 0.035689 -0.061149 
-0.330446 0.036301 -0.062787 
-0.452213 0.038403 -0.065449 
-0.410284 0.036108 -0.060529 
-0.375904 0.034806 -0.055823 
-0.376373 0.034574 -0.052821 
-0.368672 0.034518 -0.051460 
-0.433575 0.037713 -0.046054 
-0.401727 0.036000 -0.048636 
-0.336443 0.035145 -0.045179 
-0.460912 0.036500 -0.052673 
-0.339798 0.036008 -0.043743 
-0.327172 0.040802 -0.037155 
-0.432312 0.042798 -0.039966 
-0.353284 0.047222 -0.034676 
-0.475270 0.050885 -0.036878 
-0.431136 0.047352 -0.037186 
-0.368224 0.047569 -0.035003 
-0.429671 0.046158 -0.037734 
-0.357783 0.048819 -0.034085 
-0.465970 0.052258 -0.036386 
-0.343820 0.061340 -0.034643 
-0.440131 0.063124 -0.036849 
-0.447821 0.062253 -0.036781 
-0.383750 0.061342 -0.035395 
-0.451651 0.060427 -0.036414 
-0.444241 0.066193 -0.038356 
-0.345163 0.066340 -0.037813 
-0.461352 0.069402 -0.040924 
-0.423303 0.071771 -0.043337 
-0.475530 0.073124 -0.045120 
-0.471467 0.076003 -0.053255 
-0.431220 0.074835 -0.050358 
-0.399081 0.074142 -0.049118 
-0.471320 0.075099 -0.049203 
-0.334195 0.073355 -0.050598 
-0.436241 0.075481 -0.053797 
-0.420960 0.074964 -0.056285 
-0.460844 0.075318 -0.060871 
-0.442698 0.074014 -0.063498 
-0.462021 0.072988 -0.066258 
-0.352670 0.067744 -0.067505 
-0.358200 0.068153 -0.067333 
-0.370776 0.069975 -0.065997 
-0.461193 0.070431 -0.069822 
-0.379777 0.065581 -0.070463 
-0.363357 0.063731 -0.070812 
-0.452786 0.059148 -0.075139 
-0.328494 0.053300 -0.072548 
-0.458903 0.053206 -0.075287 
-0.411513 0.052382 -0.074300 
-0.400398 0.053623 -0.074155 
-0.441350 0.055106 -0.075054 
-0.361535 0.051136 -0.073048 
-0.476143 0.064132 -0.049747 
-0.475743 0.073503 -0.058414 
-0.475817 0.052110 -0.072645 
-0.476541 0.047157 -0.046369 
-0.438728 0.047469 -0.059878 
-0.471026 0.047726 -0.058355 
-0.466579 0.054626 -0.045938 
-0.453012 0.056487 -0.045796 
-0.452046 0.063696 -0.049308 
-0.453850 0.059987 -0.064566 
-0.465340 0.057992 -0.065272 
-0.436316 0.054720 -0.049288 
-0.444528 0.065065 -0.054360 
-0.319273 0.043472 -0.055926 
-0.322845 0.062550 -0.053018 
-0.316117 0.054359 -0.055668 
-0.476789 0.051435 -0.033212 
-0.475848 0.057258 -0.068002 
-0.477006 0.052405 -0.023375 
-0.475515 0.070798 -0.070302 
-0.475758 0.079383 -0.053109 
-0.476705 0.044467 -0.042279 
-0.476607 0.039151 -0.050995 
-0.475897 0.074137 -0.051764 
-0.476973 0.055870 -0.022521 
-0.476229 0.037136 -0.068312 
-0.477095 0.027927 -0.048334 
-0.500606 0.030077 -0.045077 
-0.478622 0.086013 -0.057622 
-0.500955 0.085417 -0.059998 
-0.486927 0.036815 -0.034092 
-0.496085 0.045039 -0.029163 
-0.484281 0.047683 -0.028065 
-0.478440 0.047143 -0.016182 
-0.482906 0.072605 -0.031254 
-0.485536 0.058342 -0.022888 
-0.482975 0.040250 -0.012276 
-0.497169 0.054768 -0.020789 
-0.505658 0.077933 -0.037304 
-0.490006 0.085454 -0.047590 
-0.488590 0.080791 -0.073940 
-0.491489 0.076494 -0.078619 
-0.501923 0.053318 -0.086438 
-0.481192 0.054366 -0.085399 
-0.478885 0.042587 -0.083710 
-0.493874 0.039134 -0.080623 
-0.476457 0.037284 -0.078153 
-0.506605 0.048686 -0.043549 
-0.506994 0.039980 -0.034330 
-0.506668 0.030923 -0.055714 
-0.506440 0.029733 -0.066241 
-0.505521 0.058339 -0.081136 
-0.505850 0.060677 -0.065414 
-0.506082 0.070628 -0.047341 
-0.474451 0.048486 -0.061514 
-0.461639 0.045878 -0.057424 
-0.451260 0.048173 -0.052489 
-0.456706 0.053456 -0.046459 
-0.462950 0.056173 -0.046432 
-0.462964 0.046253 -0.029310 
-0.471576 0.055257 -0.039649 
-0.465964 0.050628 -0.034238 
-0.457472 0.057211 -0.041725 
-0.477909 0.023018 -0.002537 
-0.464736 0.066380 -0.054646 
-0.469372 0.066674 -0.054598 
-0.469437 0.060889 -0.064839 
-0.446860 0.046618 -0.059825 
-0.446275 0.047255 -0.059836 
-0.498645 0.026998 -0.055034 
-0.484735 0.085118 -0.058481 
-0.490689 0.080335 -0.054757 
-0.494528 0.066893 -0.052066 
-0.498275 0.028945 -0.046765 
-0.497661 0.043660 -0.056994 
-0.490970 0.079272 -0.069308 
-0.492304 0.057966 -0.064164 
-0.486078 0.044598 -0.058869 
-0.483542 0.070047 -0.059465 
-0.312011 -0.012878 -0.074053 
-0.311617 -0.012916 -0.090706 
-0.310957 -0.001157 -0.108730 
-0.310413 -0.015137 -0.143391 
-0.311677 0.003392 -0.074523 
-0.311626 -0.005993 -0.084540 
-0.310606 0.006985 -0.116725 
-0.312210 -0.009169 -0.062543 
-0.311641 0.034348 -0.050266 
-0.311773 0.036296 -0.043110 
-0.311663 0.022866 -0.057914 
-0.311439 0.040803 -0.052748 
-0.311436 0.051112 -0.044858 
-0.312113 0.012325 -0.048385 
-0.312013 0.004239 -0.059901 
-0.311274 0.043399 -0.057277 
-0.310238 0.108274 -0.047512 
-0.309931 0.072742 -0.090519 
-0.308549 0.124266 -0.105391 
-0.307873 0.116708 -0.140222 
-0.313936 -0.007028 0.012087 
-0.312995 -0.007089 -0.027698 
-0.313384 0.000122 -0.005241 
-0.313855 -0.020473 -0.002613 
-0.314011 -0.006245 0.015880 
-0.312456 0.032551 -0.016571 
-0.311797 0.032913 -0.044205 
-0.312503 0.004218 -0.036294 
-0.312342 0.027800 -0.025168 
-0.313531 0.013881 0.012806 
-0.313795 0.014205 0.024046 
-0.314150 -0.002557 0.025100 
-0.314023 0.029991 0.004261 
-0.311776 0.032250 -0.045631 
-0.318962 0.020609 -0.038328 
-0.313695 -0.000097 -0.048610 
-0.318721 0.005395 -0.037167 
-0.314787 0.026742 0.019847 
-0.312436 0.028832 -0.020951 
-0.311977 0.101930 0.020788 
-0.311643 0.071728 -0.018574 
-0.311708 0.074113 -0.013918 
-0.311991 0.116708 0.033635 
-0.311898 0.121887 0.033424 
-0.311546 0.072387 -0.022110 
-0.310964 0.048926 -0.065116 
-0.310385 0.086206 -0.059365 
-0.310643 0.087447 -0.047225 
-0.310104 0.089161 -0.069054 
-0.310807 0.094628 -0.034587 
-0.311293 0.082913 -0.023981 
-0.311319 0.077206 -0.027312 
-0.311302 0.068156 -0.035458 
-0.327067 0.027488 -0.038163 
-0.326131 0.027318 -0.076772 
-0.325419 0.026438 -0.108373 
-0.328483 0.000953 -0.000675 
-0.326450 0.021322 -0.069277 
-0.329044 -0.006069 0.017123 
-0.324050 0.123042 0.027377 
-0.327418 0.095219 0.033500 
-0.321538 0.103015 -0.000974 
-0.327105 0.067510 -0.003146 
-0.326669 0.056554 -0.030595 
-0.327537 0.054649 0.004382 
-0.327525 0.048650 -0.001133 
-0.327828 0.049134 0.012016 
-0.327809 0.039629 0.003320 
-0.328247 0.033760 0.016901 
-0.326149 0.056940 -0.052174 
-0.325843 0.053585 -0.067845 
-0.326454 0.044417 -0.049766 
-0.326570 0.034977 -0.052706 
-0.327641 0.033343 -0.009000 
-0.325516 0.047090 -0.087043 
-0.325205 0.040559 -0.105554 
-0.326288 0.034162 -0.065295 
-0.325247 0.034632 -0.108711 
-0.328848 0.034581 0.042876 
-0.327410 0.082237 0.022060 
-0.326934 0.083024 0.002643 
-0.327631 0.079312 0.028933 
-0.326299 0.099166 -0.010461 
-0.326141 0.093974 -0.021433 
-0.324471 0.043168 -0.134257 
-0.325510 0.082733 -0.057304 
-0.322471 0.101886 -0.002017 
-0.326483 0.105243 0.001145 
-0.325129 0.001708 -0.141524 
-0.324943 0.022507 -0.139648 
-0.324981 0.023888 -0.129377 
-0.326431 0.046264 -0.049299 
-0.329763 -0.015401 0.039603 
-0.327468 0.011118 -0.035006 
-0.326669 0.019644 -0.061568 
-0.325997 0.039806 -0.073039 
-0.328051 -0.003058 -0.022292 
-0.325252 0.006912 -0.131999 
-0.325038 0.031966 -0.120090 
-0.325919 0.052802 -0.065486 
-0.325743 0.056129 -0.070038 
-0.325647 0.040779 -0.087054 
-0.325696 0.049506 -0.077650 
-0.325433 0.048200 -0.089856 
-0.326332 0.039646 -0.059060 
-0.324817 0.032533 -0.128596 
-0.325084 0.036647 -0.113976 
-0.326084 0.024847 -0.081704 
-0.326740 0.017356 -0.060329 
-0.327675 0.007339 -0.029326 
-0.328587 0.000110 0.003038 
-0.328868 -0.002532 0.012657 
-0.325442 0.041855 -0.094566 
-0.325630 0.041680 -0.086805 
-0.327139 0.020927 -0.040569 
-0.327494 0.020325 -0.026139 
-0.328200 0.010869 -0.004291 
-0.326074 0.041359 -0.068392 
-0.326713 0.034646 -0.047112 
-0.327118 0.033142 -0.031329 
-0.326467 0.047653 -0.046642 
-0.325655 -0.017641 -0.135563 
-0.326785 -0.020253 -0.090060 
-0.326393 -0.005067 -0.093889 
-0.327234 -0.002578 -0.056327 
-0.327501 0.001064 -0.042033 
-0.327223 -0.015739 -0.067822 
-0.328413 -0.014742 -0.016781 
-0.327960 -0.009274 -0.031338 
-0.329111 -0.015588 0.011946 
-0.325786 -0.001823 -0.116780 
-0.326140 0.022682 -0.081432 
-0.325624 0.036990 -0.091241 
-0.325525 0.037013 -0.095397 
-0.326289 0.037320 -0.062811 
-0.325707 0.023801 -0.098762 
-0.329770 -0.015001 0.040252 
-0.327498 0.021686 -0.024886 
-0.326294 0.040438 -0.059990 
-0.326908 0.038382 -0.035826 
-0.326035 0.041246 -0.070256 
-0.325396 0.053381 -0.087086 
-0.325035 0.059432 -0.097300 
-0.325562 0.043838 -0.088070 
-0.326725 0.020852 -0.058220 
-0.325311 0.098405 -0.052870 
-0.324430 0.043661 -0.135577 
-0.324844 0.067708 -0.098163 
-0.325653 0.102146 -0.035319 
-0.325660 0.090647 -0.044386 
-0.322836 0.122422 -0.137472 
-0.322664 0.121462 -0.146081 
-0.323109 0.100840 -0.143452 
-0.324151 0.051781 -0.140671 
-0.323935 0.074542 -0.130885 
-0.323146 0.104536 -0.139344 
-0.324510 0.058160 -0.120220 
-0.322812 0.115786 -0.143967 
-0.326577 -0.019022 0.004127 
-0.321613 -0.020915 -0.064727 
-0.318586 -0.021664 -0.091142 
-0.322661 -0.022731 -0.135200 
-0.312633 -0.022035 -0.068824 
-0.317465 -0.021100 -0.055389 
-0.314320 -0.022146 -0.100295 
-0.325905 -0.018883 0.016191 
-0.320774 -0.019381 0.043742 
-0.317044 -0.020336 0.013941 
-0.319356 -0.020164 -0.003022 
-0.327398 -0.018390 0.037239 
-0.317301 0.107185 -0.153175 
-0.311967 0.048179 -0.076633 
-0.314371 0.052526 -0.101219 
-0.311476 0.077435 -0.114629 
-0.311791 0.096256 -0.143899 
-0.309218 0.111113 -0.145429 
-0.316873 0.045433 -0.110224 
-0.315480 0.065065 -0.127593 
-0.314549 0.081641 -0.144131 
-0.320621 0.049821 -0.145139 
-0.320807 -0.000510 -0.124391 
-0.321472 -0.000509 -0.128776 
-0.319804 0.004959 -0.118555 
-0.315629 0.031034 -0.094746 
-0.314766 0.034407 -0.089535 
-0.323911 0.015728 -0.147181 
-0.321788 0.025200 -0.134530 
-0.319294 0.036788 -0.119740 
-0.324242 0.022598 -0.150347 
-0.312658 -0.009837 -0.134607 
-0.318131 0.004788 -0.117066 
-0.313969 0.026482 -0.090443 
-0.323557 -0.020387 -0.147991 
-0.310978 0.121290 -0.025651 
-0.316555 0.124648 0.011803 
-0.312432 0.126750 0.022463 
-0.318656 0.122965 0.001256 
-0.319008 0.125123 -0.112173 
-0.321484 0.124288 -0.041136 
-0.317925 0.122690 -0.008583 
-0.320933 0.123689 -0.019191 
-0.312332 0.126003 -0.138511 
-0.312927 0.125458 -0.125686 
-0.309802 0.123322 -0.077889 
-0.315446 0.126557 -0.149885 
-0.320454 -0.010620 0.048005 
-0.313088 0.028875 -0.031418 
-0.316887 0.027198 -0.011103 
-0.312964 0.022043 -0.022127 
-0.318973 0.007179 0.027649 
-0.316532 -0.002593 0.030277 
-0.321562 0.031468 0.004744 
-0.320396 0.023033 0.011442 
-0.319677 0.013267 0.022166 
-0.328734 0.026056 0.046341 
-0.326534 0.115801 0.025262 
-0.323962 0.085319 0.011471 
-0.322538 0.089881 0.002295 
-0.319538 0.063185 -0.014428 
-0.318613 0.079871 -0.021368 
-0.315814 0.049560 -0.036580 
-0.313755 0.058211 -0.049990 
-0.324946 0.079611 0.017988 
-0.326603 0.072512 0.028787 
-0.321963 0.069488 0.000185 
-0.319781 0.056145 -0.012411 
-0.317874 0.044169 -0.023404 
-0.327745 0.059069 0.036847 
-0.324870 0.046435 0.019891 
-0.323556 0.053326 0.011236 
-0.327683 0.041619 0.037709 
-0.312559 0.119612 0.032335 
-0.314474 0.100100 0.003923 
-0.313614 0.078014 -0.025380 
-0.321256 0.122615 0.028220 
-0.325934 0.043784 -0.056346 
-0.322146 0.044119 -0.062500 
-0.324689 0.051936 -0.072694 
-0.323647 0.058674 -0.086806 
-0.316297 0.045152 -0.059210 
-0.315033 0.047325 -0.062341 
-0.321612 0.030561 -0.051383 
-0.313409 0.047216 -0.065700 
-0.313907 0.056850 -0.065886 
-0.313876 0.056830 -0.068620 
-0.324101 0.061365 -0.057352 
-0.317267 0.063082 -0.050443 
-0.323073 0.061921 -0.047539 
-0.320171 0.044672 -0.113410 
-0.314204 0.054934 -0.066450 
-0.313010 0.058115 -0.051668 
-0.323942 0.058803 -0.043817 
-0.320571 0.044309 -0.109870 
-0.324445 0.047591 -0.095025 
-0.315836 0.054018 -0.064081 
-0.325682 0.056204 -0.055041 
-0.324506 0.054494 -0.048429 
-0.315369 0.058539 -0.043180 
-0.313009 0.053639 -0.042457 
-0.321605 0.028425 -0.012343 
-0.319441 0.023940 -0.007432 
-0.323074 0.019110 -0.005140 
-0.317641 0.047043 -0.044808 
-0.315140 0.045985 -0.046199 
-0.321199 0.096632 -0.127072 
-0.321714 0.072914 -0.093957 
-0.321863 0.097648 -0.058730 
-0.319344 0.100277 -0.050942 
-0.315103 0.092090 -0.077309 
-0.325163 0.110423 -0.018163 
-0.323349 0.089144 -0.080658 
-0.318295 0.105743 -0.029654 
-0.320882 0.086689 -0.080510 
-0.319194 0.098034 -0.049238 
-0.314086 0.086961 -0.081159 
-0.322887 0.112447 -0.008303 
-0.318614 0.076851 -0.091820 
-0.311276 0.073415 -0.093935 
-0.311943 0.068851 -0.103067 
-0.323589 0.067713 -0.106319 
-0.312198 0.094450 -0.085692 
-0.317400 0.105530 -0.072643 
-0.316873 0.104587 -0.087586 
-0.322273 0.116071 -0.072631 
-0.322086 0.116028 -0.100152 
-0.317919 0.106150 -0.034423 
-0.323303 0.117876 -0.040433 
-0.323994 0.119366 -0.040049 
-0.326275 0.123612 0.012349 
-0.311154 0.114419 -0.046884 
-0.314199 0.107349 -0.084560 
-0.318516 0.112245 -0.107238 
-0.314367 0.100671 -0.099603 
-0.317440 0.086750 -0.115285 
-0.322029 0.055167 -0.148640 
-0.319427 0.082506 -0.144102 
-0.312447 0.090406 -0.142626 
-0.316665 0.106227 -0.140152 
-0.311547 0.100715 -0.141775 
-0.309932 0.073057 -0.097717 
-0.313975 0.092396 -0.119876 
-0.309405 0.081870 -0.108033 
-0.316877 0.081962 -0.107453 
-0.317276 0.088798 -0.111892 
-0.315717 0.116528 -0.139897 
-0.313014 0.118576 -0.137768 
-0.311054 0.121223 -0.138366 
-0.312476 0.119082 -0.122850 
-0.317129 -0.002867 -0.137566 
-0.315459 -0.012829 -0.144465 
-0.314932 0.003655 -0.134974 
-0.316016 0.009417 -0.132573 
-0.324116 0.016881 -0.134783 
-0.313691 0.040363 -0.079953 
-0.316967 0.013976 -0.120423 
-0.315548 -0.007630 -0.143779 
-0.320929 0.009081 -0.135931 
-0.318886 0.029427 -0.108341 
-0.324653 0.025138 -0.140400 
-0.315934 0.026672 -0.140772 
-0.312761 0.023584 -0.135249 
-0.318610 0.030580 -0.108533 
-0.322529 0.007782 -0.097614 
-0.319330 0.007813 -0.091251 
-0.324075 0.019848 -0.054743 
-0.319113 0.022359 -0.068355 
-0.313091 0.022379 -0.071952 
-0.316246 0.035656 -0.083084 
-0.323612 0.027879 -0.076486 
-0.322739 0.034442 -0.073886 
-0.325293 0.044098 -0.076691 
-0.318717 0.017370 -0.070704 
-0.324470 0.009170 -0.063096 
-0.312124 0.009143 -0.068016 
-0.327634 -0.002724 -0.020574 
-0.321949 -0.002191 -0.021476 
-0.318169 0.008594 -0.067642 
-0.327551 -0.010361 0.012809 
-0.312330 0.003988 -0.066228 
-0.314542 -0.016489 -0.048444 
-0.314522 0.023802 -0.086270 
-0.315388 0.028315 -0.090338 
-0.315925 0.044108 -0.056170 
-0.318021 0.044452 -0.057504 
-0.322904 0.092988 0.011711 
-0.313245 0.074630 -0.015048 
-0.312032 0.121525 0.026550 
-0.321263 0.122857 0.026931 
-0.321471 0.116832 0.034202 
-0.319164 0.106607 0.035813 
-0.318276 0.081935 0.039496 
-0.314438 0.111458 0.034709 
-0.317912 0.111662 0.034173 
-0.319803 0.092584 0.037147 
-0.319908 0.071395 0.039774 
-0.327382 0.035796 0.046032 
-0.313935 0.060561 -0.043705 
-0.319485 0.101910 0.021358 
-0.314271 0.101124 0.020244 
-0.325007 0.103637 0.023950 
-0.316239 0.115629 -0.016947 
-0.319429 0.118970 -0.002997 
-0.324719 0.101174 -0.009220 
-0.324083 0.120722 0.013427 
-0.318521 0.101897 -0.021554 
-0.322241 0.073559 -0.003575 
-0.319837 0.053402 0.017516 
-0.318291 0.063084 0.006144 
-0.324211 0.044655 -0.119951 
-0.319348 0.063114 -0.055911 
-0.318525 0.069635 -0.033368 
-0.321214 0.074567 -0.016623 
-0.321881 0.073931 -0.019901 
-0.323146 0.060445 -0.066153 
-0.316079 0.075599 -0.013224 
-0.323554 0.055114 -0.084424 
-0.317803 0.063519 -0.057842 
-0.320766 0.075647 -0.020834 
-0.320288 0.066579 -0.049951 
-0.313315 0.075680 -0.018353 
-0.322832 0.045568 -0.118581 
-0.318267 0.076327 -0.017208 
-0.324635 0.073930 -0.023926 
-0.311501 0.052480 -0.056737 
-0.324195 0.037845 -0.144203 
-0.318941 0.072831 -0.034411 
-0.317895 0.071065 -0.039841 
-0.325024 0.076366 -0.023885 
-0.313449 0.071679 -0.038617 
-0.322042 0.078810 -0.023062 
-0.321475 0.060425 -0.077067 
-0.318128 0.078641 -0.022137 
-0.322378 0.046381 -0.118805 
-0.317269 0.070720 -0.047634 
-0.318101 0.057936 -0.089254 
-0.325552 0.070178 -0.063447 
-0.319076 0.083737 -0.027062 
-0.312981 0.081998 -0.029834 
-0.319011 0.059537 -0.088821 
-0.320923 0.087210 -0.019848 
-0.322548 0.025732 0.037830 
-0.319603 0.025690 0.018951 
-0.324454 0.027922 0.006291 
-0.325737 0.024346 0.019935 
-0.324599 0.024051 0.039037 
-0.315861 0.020571 0.032847 
-0.328030 -0.005966 0.043987 
-0.328497 0.007507 0.034620 
-0.315469 0.018595 0.030762 
-0.326783 0.015896 0.031139 
-0.329101 -0.005107 0.038266 
-0.325916 -0.000374 0.035599 
-0.318289 0.025503 0.017373 
-0.317533 0.004769 -0.032092 
-0.316170 0.008512 -0.032369 
-0.327606 0.002584 -0.010162 
-0.312816 0.010032 -0.030545 
-0.321838 0.007324 -0.018434 
-0.327307 0.016320 -0.034939 
-0.313928 0.019232 -0.043673 
-0.321227 0.025652 -0.088325 
-0.323255 0.020072 -0.053662 
-0.319790 0.028397 -0.105159 
-0.316643 0.023232 -0.061926 
-0.315406 0.032295 -0.049224 
-0.324568 0.026800 -0.039947 
-0.311360 0.040759 -0.058898 
-0.314045 0.022341 -0.032673 
-0.325691 0.029270 -0.092892 
-0.312385 0.023566 -0.031521 
-0.324290 0.024561 -0.033409 
-0.319226 0.028635 -0.081715 
-0.319042 0.025223 -0.044467 
-0.324313 0.032947 -0.125290 
-0.323626 0.025362 0.002780 
-0.328463 -0.009430 0.022280 
-0.319378 0.000353 0.034781 
-0.314364 0.007514 0.004237 
-0.323461 -0.007706 0.021452 
-0.319959 -0.002272 0.007567 
-0.412786 0.661350 -0.064942 
-0.373525 0.660306 -0.081395 
-0.422380 0.146702 -0.076300 
-0.416421 0.218961 -0.077301 
-0.412162 0.262202 -0.077884 
-0.408254 0.313163 -0.078597 
-0.406570 0.332094 -0.078857 
-0.399312 0.391035 -0.079618 
-0.393796 0.469327 -0.080725 
-0.392772 0.470396 -0.080718 
-0.386197 0.526094 -0.081443 
-0.387893 0.573091 -0.082225 
-0.376242 0.655482 -0.083253 
-0.421804 0.217232 -0.077400 
-0.415690 0.297844 -0.078529 
-0.413274 0.326892 -0.078932 
-0.409664 0.389335 -0.079833 
-0.404898 0.404400 -0.079959 
-0.399908 0.471483 -0.080902 
-0.391752 0.551484 -0.081974 
-0.389948 0.619528 -0.083006 
-0.382853 0.635277 -0.083089 
-0.418505 0.355795 -0.079510 
-0.415202 0.415566 -0.080377 
-0.410693 0.452339 -0.080852 
-0.406630 0.493871 -0.081412 
-0.402974 0.497040 -0.081377 
-0.396483 0.608976 -0.082993 
-0.393079 0.625684 -0.083177 
-0.415144 0.457061 -0.081030 
-0.413861 0.475916 -0.081298 
-0.410407 0.479658 -0.081276 
-0.402761 0.619786 -0.083310 
-0.400016 0.595602 -0.082864 
-0.416409 0.495000 -0.081659 
-0.411651 0.602873 -0.083251 
-0.406883 0.603444 -0.083148 
-0.409216 0.639124 -0.083766 
-0.389466 0.104907 -0.074870 
-0.389350 0.130172 -0.075266 
-0.385716 0.204587 -0.076356 
-0.381358 0.277435 -0.077404 
-0.381195 0.302373 -0.077794 
-0.383832 0.336375 -0.078393 
-0.382824 0.390254 -0.079220 
-0.380850 0.459136 -0.080261 
-0.378913 0.523045 -0.081225 
-0.380311 0.559713 -0.081837 
-0.376762 0.568525 -0.081893 
-0.392010 0.129038 -0.075310 
-0.396236 0.151396 -0.075762 
-0.391175 0.239515 -0.077035 
-0.395398 0.225930 -0.076919 
-0.391548 0.288501 -0.077817 
-0.392357 0.347711 -0.078771 
-0.385516 0.425720 -0.079843 
-0.390257 0.439876 -0.080177 
-0.384340 0.487023 -0.080783 
-0.398607 0.103750 -0.075065 
-0.398827 0.183215 -0.076325 
-0.395794 0.242338 -0.077188 
-0.401745 0.244792 -0.077366 
-0.396327 0.328452 -0.078560 
-0.398366 0.320156 -0.078477 
-0.392333 0.448328 -0.080359 
-0.404797 0.107098 -0.075263 
-0.410691 0.122047 -0.075637 
-0.406685 0.184992 -0.076537 
-0.409286 0.203749 -0.076894 
-0.401798 0.313187 -0.078447 
-0.416144 0.096935 -0.075368 
-0.415601 0.160763 -0.076363 
-0.412960 0.205021 -0.077000 
-0.421402 0.094233 -0.075448 
-0.425369 0.109506 -0.043265 
-0.423611 0.198637 -0.042860 
-0.419268 0.416546 -0.043781 
-0.420868 0.337818 -0.042150 
-0.416944 0.533781 -0.043751 
-0.423029 0.229634 -0.041487 
-0.423841 0.191722 -0.038933 
-0.420981 0.334418 -0.040253 
-0.424888 0.139609 -0.038352 
-0.422954 0.202378 -0.067445 
-0.421247 0.280911 -0.073776 
-0.423523 0.168697 -0.071650 
-0.422817 0.201140 -0.074282 
-0.424567 0.115414 -0.072160 
-0.419323 0.375920 -0.075487 
-0.418979 0.392910 -0.075784 
-0.419030 0.385427 -0.079876 
-0.416352 0.517984 -0.081976 
-0.414334 0.658855 -0.049267 
-0.415705 0.586943 -0.051573 
-0.416149 0.564960 -0.051210 
-0.417610 0.488218 -0.053796 
-0.418687 0.435431 -0.052495 
-0.419069 0.411794 -0.056172 
-0.421007 0.314897 -0.055495 
-0.421418 0.285592 -0.062635 
-0.422201 0.249734 -0.059607 
-0.422926 0.209416 -0.062742 
-0.423711 0.170286 -0.062375 
-0.414572 0.642415 -0.052971 
-0.415855 0.571411 -0.058244 
-0.416473 0.541599 -0.057106 
-0.416535 0.533258 -0.061480 
-0.418006 0.463050 -0.058149 
-0.419494 0.379695 -0.065117 
-0.420154 0.348009 -0.063759 
-0.420246 0.339598 -0.066899 
-0.422014 0.252121 -0.065525 
-0.414235 0.648956 -0.061735 
-0.415001 0.606950 -0.064546 
-0.416430 0.535621 -0.063937 
-0.417499 0.475524 -0.069080 
-0.418182 0.441692 -0.068603 
-0.419294 0.381791 -0.071777 
-0.419553 0.369748 -0.070917 
-0.415306 0.588601 -0.067009 
-0.415546 0.572787 -0.070148 
-0.417005 0.498022 -0.071107 
-0.416616 0.515901 -0.072573 
-0.417980 0.447445 -0.072279 
-0.414420 0.627270 -0.072051 
-0.414979 0.590641 -0.079099 
-0.415557 0.560303 -0.080110 
-0.414379 0.620856 -0.079169 
-0.425099 0.120441 -0.045507 
-0.424091 0.169354 -0.047129 
-0.425435 0.095694 -0.052031 
-0.424740 0.129384 -0.053179 
-0.424041 0.161655 -0.055676 
-0.423999 0.161713 -0.057404 
-0.423179 0.201646 -0.058569 
-0.422635 0.244082 -0.046026 
-0.421162 0.315693 -0.048263 
-0.421180 0.312043 -0.050577 
-0.420071 0.366959 -0.051386 
-0.420759 0.328430 -0.054603 
-0.418765 0.440484 -0.045000 
-0.418009 0.477445 -0.045972 
-0.418266 0.459282 -0.050308 
-0.417134 0.520954 -0.046509 
-0.386653 0.141474 -0.035366 
-0.387965 0.200868 -0.036334 
-0.390555 0.258856 -0.037310 
-0.391843 0.332548 -0.038504 
-0.397483 0.371333 -0.039248 
-0.395952 0.394670 -0.039581 
-0.400399 0.414557 -0.039999 
-0.400487 0.479052 -0.041019 
-0.404186 0.540222 -0.042071 
-0.403968 0.566457 -0.042480 
-0.411340 0.616285 -0.043439 
-0.383124 0.277155 -0.037425 
-0.388267 0.288783 -0.037729 
-0.386982 0.375078 -0.039062 
-0.388484 0.377520 -0.039135 
-0.394548 0.434481 -0.040176 
-0.396362 0.511068 -0.041428 
-0.396883 0.550741 -0.042067 
-0.400327 0.576065 -0.042547 
-0.404901 0.653171 -0.043871 
-0.382792 0.330209 -0.038255 
-0.381708 0.385433 -0.039102 
-0.387088 0.380979 -0.039157 
-0.391184 0.475461 -0.040745 
-0.390800 0.545445 -0.041841 
-0.392840 0.574371 -0.042345 
-0.398846 0.631886 -0.043394 
-0.380600 0.455750 -0.040186 
-0.379890 0.482690 -0.040595 
-0.388345 0.544676 -0.041771 
-0.386042 0.589890 -0.042431 
-0.393931 0.660396 -0.043729 
-0.379915 0.505122 -0.040949 
-0.379438 0.565946 -0.041899 
-0.382789 0.646711 -0.043252 
-0.379118 0.633696 -0.042961 
-0.423605 0.154229 -0.036431 
-0.418692 0.129649 -0.035928 
-0.422291 0.190610 -0.036975 
-0.416973 0.227945 -0.037440 
-0.418514 0.284853 -0.038374 
-0.416107 0.350567 -0.039356 
-0.419105 0.383842 -0.039951 
-0.414930 0.463794 -0.041116 
-0.412324 0.484853 -0.041387 
-0.412700 0.534303 -0.042177 
-0.413515 0.597736 -0.043197 
-0.417037 0.166312 -0.036468 
-0.413252 0.146083 -0.036060 
-0.415996 0.214455 -0.037204 
-0.410347 0.209084 -0.036987 
-0.411878 0.319538 -0.038767 
-0.411089 0.348758 -0.039210 
-0.411527 0.430651 -0.040513 
-0.407113 0.453459 -0.040770 
-0.409869 0.479068 -0.041239 
-0.408210 0.092011 -0.035089 
-0.404192 0.181458 -0.036407 
-0.407877 0.224846 -0.037178 
-0.403819 0.265772 -0.037730 
-0.403434 0.298579 -0.038238 
-0.402234 0.307377 -0.038349 
-0.401832 0.402106 -0.039836 
-0.404970 0.137714 -0.035735 
-0.399252 0.131395 -0.035501 
-0.399628 0.219200 -0.036896 
-0.399581 0.265005 -0.037618 
-0.397058 0.297713 -0.038076 
-0.395855 0.108864 -0.035066 
-0.394264 0.160759 -0.035848 
-0.392631 0.218728 -0.036725 
-0.390478 0.114828 -0.035034 
-0.376573 0.509326 -0.079071 
-0.380655 0.308398 -0.074948 
-0.381141 0.283168 -0.075544 
-0.384271 0.129060 -0.072432 
-0.384983 0.093911 -0.071806 
-0.378850 0.399441 -0.074933 
-0.381416 0.274577 -0.071137 
-0.384352 0.127899 -0.069966 
-0.382730 0.211191 -0.068735 
-0.384846 0.134445 -0.043658 
-0.382041 0.276556 -0.043096 
-0.384978 0.131374 -0.040662 
-0.382598 0.253833 -0.038634 
-0.385530 0.107380 -0.037459 
-0.379669 0.396750 -0.042641 
-0.378962 0.432168 -0.042824 
-0.379356 0.415953 -0.039771 
-0.377054 0.529695 -0.041762 
-0.385211 0.105706 -0.052299 
-0.384698 0.132712 -0.051332 
-0.383608 0.189285 -0.050016 
-0.384241 0.159327 -0.048376 
-0.384994 0.121285 -0.048404 
-0.383018 0.224964 -0.045050 
-0.385129 0.118028 -0.045434 
-0.381342 0.304176 -0.049481 
-0.380552 0.346875 -0.047127 
-0.382362 0.255230 -0.047407 
-0.380577 0.346851 -0.046089 
-0.380574 0.349572 -0.043905 
-0.378185 0.466435 -0.046972 
-0.378137 0.469863 -0.046119 
-0.378790 0.439691 -0.043802 
-0.376224 0.567609 -0.045057 
-0.374258 0.626681 -0.078580 
-0.375261 0.580054 -0.075270 
-0.375656 0.559054 -0.076184 
-0.376424 0.525676 -0.071713 
-0.378024 0.448895 -0.068418 
-0.378298 0.437997 -0.065975 
-0.380769 0.314568 -0.064999 
-0.381452 0.283819 -0.061902 
-0.382217 0.246904 -0.060508 
-0.382550 0.235586 -0.055924 
-0.383788 0.170513 -0.058123 
-0.374766 0.607478 -0.073198 
-0.375416 0.579519 -0.069157 
-0.375879 0.554370 -0.070669 
-0.376409 0.535247 -0.064321 
-0.377987 0.456998 -0.063212 
-0.379540 0.381222 -0.061054 
-0.381064 0.307794 -0.058202 
-0.380915 0.319744 -0.054484 
-0.383092 0.210890 -0.053716 
-0.374136 0.647223 -0.066543 
-0.374804 0.619887 -0.061226 
-0.376199 0.546138 -0.064061 
-0.377048 0.510679 -0.057922 
-0.378801 0.425029 -0.055604 
-0.379732 0.380091 -0.053896 
-0.381289 0.304150 -0.051739 
-0.374270 0.646301 -0.061667 
-0.375139 0.608754 -0.056400 
-0.377207 0.506682 -0.054563 
-0.377365 0.502027 -0.051764 
-0.378213 0.458052 -0.052777 
-0.374572 0.642640 -0.051960 
-0.375076 0.619300 -0.050228 
-0.376763 0.536029 -0.048732 
-0.375587 0.597724 -0.046747 
-0.382274 0.233382 -0.069409 
-0.382983 0.202416 -0.065382 
-0.385063 0.103086 -0.060749 
-0.381484 0.276961 -0.066260 
-0.382465 0.232041 -0.062483 
-0.379330 0.376387 -0.073980 
-0.378181 0.434251 -0.074060 
-0.380515 0.325492 -0.066570 
-0.376941 0.494780 -0.075721 
-0.386197 0.156790 -0.073612 
-0.390013 0.254527 -0.075244 
-0.391936 0.264497 -0.075447 
-0.392970 0.349770 -0.076817 
-0.396695 0.338392 -0.076725 
-0.399923 0.471455 -0.078901 
-0.405751 0.529612 -0.079955 
-0.406111 0.561855 -0.080473 
-0.407028 0.628447 -0.081546 
-0.383491 0.301920 -0.075840 
-0.385498 0.365676 -0.076894 
-0.390778 0.385924 -0.077337 
-0.393009 0.499036 -0.079175 
-0.397889 0.518042 -0.079589 
-0.395899 0.595932 -0.080772 
-0.400142 0.651404 -0.081747 
-0.385586 0.421085 -0.077770 
-0.383754 0.482560 -0.078698 
-0.390876 0.533880 -0.079675 
-0.389919 0.636023 -0.081265 
-0.390551 0.659794 -0.081655 
-0.382641 0.525320 -0.079347 
-0.380480 0.552249 -0.079722 
-0.387249 0.644187 -0.081332 
-0.378707 0.609100 -0.080578 
-0.420336 0.133088 -0.074036 
-0.416701 0.113024 -0.073634 
-0.418993 0.215283 -0.075302 
-0.415794 0.249575 -0.075769 
-0.416812 0.359277 -0.077525 
-0.413347 0.370405 -0.077619 
-0.413417 0.401569 -0.078113 
-0.410213 0.436850 -0.078595 
-0.412792 0.547112 -0.080396 
-0.409276 0.518492 -0.079862 
-0.410538 0.574833 -0.080781 
-0.415827 0.130422 -0.073888 
-0.411432 0.101274 -0.073325 
-0.414349 0.195927 -0.074888 
-0.408916 0.260047 -0.075773 
-0.409855 0.305620 -0.076515 
-0.407844 0.300070 -0.076380 
-0.406003 0.376447 -0.077543 
-0.406556 0.406897 -0.078037 
-0.407249 0.554021 -0.080376 
-0.409686 0.120137 -0.073582 
-0.406032 0.130945 -0.073668 
-0.406390 0.255756 -0.075647 
-0.403432 0.241536 -0.075353 
-0.403378 0.312691 -0.076475 
-0.404450 0.372480 -0.077444 
-0.400018 0.392276 -0.077653 
-0.403680 0.137193 -0.073711 
-0.398845 0.129262 -0.073473 
-0.399291 0.224325 -0.074984 
-0.395942 0.259675 -0.075464 
-0.400876 0.282073 -0.075933 
-0.395014 0.100010 -0.072922 
-0.394568 0.133862 -0.073446 
-0.391905 0.196623 -0.074374 
-0.391477 0.105331 -0.072923 
-0.422177 0.157568 -0.053317 
-0.420694 0.235861 -0.050364 
-0.423457 0.099981 -0.047493 
-0.421095 0.219196 -0.047411 
-0.421598 0.197230 -0.044545 
-0.421924 0.184170 -0.041706 
-0.422210 0.171764 -0.040039 
-0.420587 0.240344 -0.051124 
-0.418484 0.347793 -0.049985 
-0.419371 0.306285 -0.047277 
-0.418864 0.336051 -0.043767 
-0.420756 0.244728 -0.040350 
-0.417597 0.393895 -0.048809 
-0.417555 0.399039 -0.046315 
-0.418021 0.377683 -0.044499 
-0.413493 0.604641 -0.045687 
-0.413078 0.587625 -0.077438 
-0.411923 0.648075 -0.075590 
-0.414296 0.529215 -0.074913 
-0.415420 0.478507 -0.069900 
-0.415508 0.470385 -0.072963 
-0.417244 0.391453 -0.065768 
-0.417688 0.367928 -0.066702 
-0.419292 0.296095 -0.059135 
-0.419741 0.270616 -0.061518 
-0.421042 0.210105 -0.057223 
-0.421806 0.172363 -0.056587 
-0.412043 0.642563 -0.075138 
-0.413660 0.571060 -0.066739 
-0.415396 0.482770 -0.067361 
-0.414910 0.510535 -0.064620 
-0.416040 0.456871 -0.061828 
-0.417209 0.401270 -0.059048 
-0.417757 0.372250 -0.060202 
-0.417922 0.368340 -0.056484 
-0.420117 0.259411 -0.055009 
-0.412964 0.605737 -0.067099 
-0.413777 0.567380 -0.064871 
-0.415189 0.499982 -0.061669 
-0.415754 0.475073 -0.058681 
-0.416099 0.456108 -0.059969 
-0.417474 0.392401 -0.055257 
-0.419304 0.303118 -0.052751 
-0.412321 0.644611 -0.061677 
-0.413657 0.583632 -0.056344 
-0.414129 0.562058 -0.054450 
-0.415044 0.518014 -0.052685 
-0.416364 0.450022 -0.053905 
-0.412748 0.630841 -0.055179 
-0.413503 0.598123 -0.050716 
-0.414709 0.535944 -0.051838 
-0.412762 0.639926 -0.046994 
-0.422906 0.100735 -0.070104 
-0.421161 0.187607 -0.071058 
-0.422840 0.108185 -0.066666 
-0.420344 0.231913 -0.068445 
-0.422763 0.116849 -0.062639 
-0.420398 0.235750 -0.062945 
-0.422556 0.130356 -0.060071 
-0.420026 0.241737 -0.073633 
-0.419193 0.284021 -0.073430 
-0.418693 0.312471 -0.070708 
-0.418431 0.326706 -0.069856 
-0.419649 0.269282 -0.066502 
-0.416798 0.402336 -0.075477 
-0.414452 0.516446 -0.078999 
-0.416172 0.435742 -0.073932 
-0.413153 0.580975 -0.079840 
-0.422898 0.135489 -0.038120 
-0.419600 0.197760 -0.039026 
-0.412439 0.228762 -0.039348 
-0.409379 0.322988 -0.040764 
-0.400866 0.369642 -0.041301 
-0.399844 0.397001 -0.041709 
-0.396907 0.430675 -0.042172 
-0.394778 0.509733 -0.043371 
-0.390547 0.517540 -0.043395 
-0.385350 0.606506 -0.044678 
-0.377186 0.656738 -0.045280 
-0.420150 0.224118 -0.039455 
-0.416179 0.286172 -0.040341 
-0.411895 0.356833 -0.041357 
-0.405537 0.416055 -0.042143 
-0.403514 0.435912 -0.042409 
-0.398399 0.509967 -0.043459 
-0.395650 0.544129 -0.043934 
-0.393650 0.588438 -0.044587 
-0.385847 0.629369 -0.045051 
-0.417109 0.324896 -0.040975 
-0.410964 0.438782 -0.042629 
-0.408206 0.462257 -0.042935 
-0.403651 0.523941 -0.043802 
-0.401526 0.556915 -0.044273 
-0.396683 0.608522 -0.044975 
-0.395308 0.600544 -0.044817 
-0.417172 0.394704 -0.042078 
-0.413009 0.486608 -0.043432 
-0.404627 0.549862 -0.044235 
-0.401888 0.628235 -0.045408 
-0.400078 0.597328 -0.044878 
-0.413550 0.513680 -0.043872 
-0.406946 0.639751 -0.045708 
-0.405398 0.606063 -0.045140 
-0.410521 0.654080 -0.046018 
-0.387421 0.148614 -0.037497 
-0.391952 0.149613 -0.037619 
-0.388791 0.234747 -0.038889 
-0.386909 0.299724 -0.039871 
-0.383860 0.319415 -0.040111 
-0.388848 0.360767 -0.040880 
-0.385368 0.460848 -0.042379 
-0.387007 0.486172 -0.042817 
-0.379623 0.574959 -0.044046 
-0.394614 0.114355 -0.037124 
-0.399132 0.181957 -0.038297 
-0.394673 0.242136 -0.039143 
-0.393749 0.317294 -0.040308 
-0.391000 0.394427 -0.041462 
-0.395980 0.344008 -0.040782 
-0.392750 0.451740 -0.042408 
-0.403331 0.126413 -0.037519 
-0.403188 0.174778 -0.038279 
-0.405992 0.216370 -0.039001 
-0.404391 0.279983 -0.039968 
-0.398630 0.359056 -0.041082 
-0.409809 0.113883 -0.037472 
-0.410441 0.172259 -0.038409 
-0.412352 0.217143 -0.039162 
-0.420150 0.114416 -0.037723 
-0.385675 0.185994 -0.049979 
-0.385840 0.180857 -0.047293 
-0.383753 0.284949 -0.048264 
-0.383754 0.287507 -0.046096 
-0.381537 0.398315 -0.046925 
-0.380871 0.434166 -0.045028 
-0.378299 0.563187 -0.045629 
-0.386997 0.125656 -0.044665 
-0.385687 0.191267 -0.045079 
-0.384004 0.277079 -0.044284 
-0.382799 0.340601 -0.041989 
-0.380456 0.456771 -0.043621 
-0.386741 0.142198 -0.041660 
-0.385490 0.208323 -0.039100 
-0.384139 0.275071 -0.040253 
-0.386957 0.134051 -0.039331 
-0.386067 0.148079 -0.065171 
-0.386166 0.142889 -0.065317 
-0.386752 0.113562 -0.065134 
-0.384767 0.207096 -0.070652 
-0.386364 0.128564 -0.068941 
-0.385496 0.169128 -0.071633 
-0.384818 0.200574 -0.073935 
-0.381885 0.352508 -0.070591 
-0.383291 0.282252 -0.070024 
-0.382739 0.306644 -0.072907 
-0.381304 0.375009 -0.076281 
-0.383438 0.270703 -0.073516 
-0.380286 0.428161 -0.074755 
-0.379017 0.490550 -0.076092 
-0.379170 0.479921 -0.078526 
-0.377446 0.566576 -0.078760 
-0.377143 0.617769 -0.048742 
-0.376494 0.646397 -0.052180 
-0.380397 0.450428 -0.051436 
-0.378537 0.538899 -0.055890 
-0.380651 0.429161 -0.058519 
-0.381975 0.364019 -0.057165 
-0.383873 0.266357 -0.058790 
-0.383453 0.283490 -0.062177 
-0.386496 0.130883 -0.061445 
-0.377813 0.574780 -0.056437 
-0.378084 0.558377 -0.058726 
-0.378324 0.541915 -0.062349 
-0.379615 0.476771 -0.062399 
-0.380902 0.408596 -0.065151 
-0.381294 0.388892 -0.065078 
-0.383018 0.299176 -0.067394 
-0.377562 0.580594 -0.062160 
-0.377734 0.567685 -0.065713 
-0.379007 0.501016 -0.067768 
-0.378234 0.536915 -0.070336 
-0.381671 0.365117 -0.069051 
-0.376578 0.622783 -0.068390 
-0.377844 0.555434 -0.071287 
-0.378470 0.523578 -0.071529 
-0.376290 0.625685 -0.078100 
-0.386531 0.140077 -0.052292 
-0.384821 0.228798 -0.050188 
-0.387208 0.101579 -0.055904 
-0.384930 0.219743 -0.053187 
-0.386428 0.138888 -0.057603 
-0.385398 0.191503 -0.057044 
-0.385385 0.190954 -0.058082 
-0.383916 0.273922 -0.050625 
-0.382822 0.328736 -0.050948 
-0.383922 0.269826 -0.053797 
-0.382869 0.322979 -0.053779 
-0.384438 0.240310 -0.056717 
-0.380813 0.433014 -0.048451 
-0.381302 0.406147 -0.050285 
-0.381302 0.405018 -0.051228 
-0.379056 0.520880 -0.049077 
-0.424498 0.094823 -0.054046 
-0.424222 0.092350 -0.040463 
-0.386679 0.090752 -0.037230 
-0.372075 0.553368 -0.069113 
-0.354791 0.598187 -0.073525 
-0.341784 0.626374 -0.075355 
-0.369824 0.576224 -0.074268 
-0.313602 0.622993 -0.072671 
-0.317281 0.630442 -0.073609 
-0.309540 0.652792 -0.076022 
-0.337906 0.614624 -0.072225 
-0.324122 0.658314 -0.076972 
-0.325968 0.603844 -0.070726 
-0.349180 0.568527 -0.067148 
-0.352510 0.580862 -0.068642 
-0.371124 0.531317 -0.063324 
-0.373584 0.568389 -0.069241 
-0.365680 0.584758 -0.066129 
-0.358695 0.593818 -0.060302 
-0.350452 0.605511 -0.053996 
-0.341012 0.628004 -0.051955 
-0.371415 0.552668 -0.056877 
-0.360061 0.576826 -0.052775 
-0.356080 0.587532 -0.052610 
-0.375562 0.532827 -0.052103 
-0.343477 0.630134 -0.074837 
-0.344611 0.628918 -0.062703 
-0.338655 0.638880 -0.060737 
-0.358734 0.604775 -0.076894 
-0.338351 0.619372 -0.046783 
-0.323286 0.627179 -0.046554 
-0.308874 0.634839 -0.046338 
-0.360920 0.553141 -0.046265 
-0.366615 0.535381 -0.052695 
-0.347522 0.566668 -0.060260 
-0.321707 0.608689 -0.066338 
-0.368094 0.533324 -0.057567 
-0.295358 0.652947 -0.052540 
-0.314484 0.621285 -0.052777 
-0.302610 0.640695 -0.057152 
-0.316984 0.616729 -0.060467 
-0.305539 0.635110 -0.070711 
-0.324699 0.604299 -0.054302 
-0.333155 0.590253 -0.055274 
-0.339412 0.579709 -0.058767 
-0.352597 0.558316 -0.050955 
-0.361016 0.549183 -0.074216 
-0.345467 0.589403 -0.074488 
-0.342265 0.595299 -0.074506 
-0.333716 0.621899 -0.074726 
-0.324819 0.646899 -0.074913 
-0.326267 0.612600 -0.074405 
-0.324997 0.613283 -0.074386 
-0.313246 0.654463 -0.074761 
-0.307441 0.644980 -0.074476 
-0.365636 0.588991 -0.074953 
-0.351125 0.605707 -0.074877 
-0.336580 0.630017 -0.074921 
-0.365843 0.552925 -0.074388 
-0.349619 0.616590 -0.065855 
-0.332395 0.645269 -0.062613 
-0.331020 0.647985 -0.054520 
-0.336707 0.637518 -0.073914 
-0.368920 0.585559 -0.049206 
-0.351529 0.613858 -0.058012 
-0.333291 0.644517 -0.049190 
-0.368243 0.585530 -0.070290 
-0.341262 0.613416 -0.048758 
-0.329482 0.637599 -0.048864 
-0.310513 0.653349 -0.048670 
-0.325716 0.652159 -0.049006 
-0.364704 0.547501 -0.058273 
-0.361432 0.559717 -0.056079 
-0.348203 0.571203 -0.056551 
-0.341909 0.592132 -0.052962 
-0.317624 0.623187 -0.051371 
-0.361272 0.565193 -0.054768 
-0.351680 0.584447 -0.052417 
-0.334719 0.611362 -0.050017 
-0.355428 0.592994 -0.049373 
-0.343409 0.575415 -0.065869 
-0.333355 0.592675 -0.058823 
-0.304738 0.640054 -0.070499 
-0.302836 0.643941 -0.057872 
-0.366682 0.537439 -0.072531 
-0.344294 0.574232 -0.070243 
-0.334450 0.590792 -0.072832 
-0.354159 0.557658 -0.067845 
-0.293054 0.659106 -0.053617 
-0.291517 0.658855 -0.067965 
-0.301664 0.658953 -0.074951 
-0.375963 0.563614 -0.056842 
-0.376074 0.550289 -0.062851 
-0.375523 0.562655 -0.076185 
-0.375897 0.546068 -0.073732 
-0.376702 0.536370 -0.047529 
-0.175294 0.697556 -0.082383 
-0.199684 0.689261 -0.050455 
-0.188685 0.693850 -0.065625 
-0.191659 0.692886 -0.077025 
-0.171140 0.700899 -0.074771 
-0.184164 0.697534 -0.043439 
-0.193547 0.692901 -0.051699 
-0.194875 0.692599 -0.068535 
-0.195668 0.691504 -0.038111 
-0.178802 0.669781 -0.034686 
-0.172384 0.680654 -0.034288 
-0.167917 0.704202 -0.034285 
-0.185070 0.695562 -0.035699 
-0.169768 0.661732 -0.072011 
-0.186394 0.673236 -0.066014 
-0.171989 0.662410 -0.062415 
-0.170645 0.660715 -0.049590 
-0.171013 0.661866 -0.065638 
-0.354024 0.702954 -0.069212 
-0.360273 0.705809 -0.060975 
-0.345299 0.699181 -0.040158 
-0.349763 0.701187 -0.040696 
-0.348963 0.701774 -0.067391 
-0.365023 0.678955 -0.086822 
-0.337999 0.682962 -0.040707 
-0.357493 0.667925 -0.059179 
-0.353118 0.670371 -0.066151 
-0.365948 0.662419 -0.055013 
-0.334245 0.687314 -0.038242 
-0.201020 0.682186 -0.083207 
-0.311347 0.679616 -0.084048 
-0.265957 0.681469 -0.086087 
-0.178370 0.696262 -0.082749 
-0.213496 0.686521 -0.084940 
-0.364493 0.681991 -0.088401 
-0.310764 0.667755 -0.086920 
-0.210747 0.676919 -0.084724 
-0.213065 0.685095 -0.084907 
-0.261495 0.675992 -0.085897 
-0.207096 0.679217 -0.084675 
-0.352334 0.661385 -0.087793 
-0.319934 0.701998 -0.087673 
-0.280235 0.693841 -0.086616 
-0.279027 0.690674 -0.086538 
-0.239622 0.688638 -0.085584 
-0.326074 0.690503 -0.087635 
-0.291809 0.693488 -0.039817 
-0.269904 0.692180 -0.050772 
-0.246153 0.693105 -0.054935 
-0.215675 0.693352 -0.063371 
-0.227403 0.689285 -0.073204 
-0.239843 0.696815 -0.044632 
-0.187944 0.699856 -0.050369 
