# .PCD v0.7 - Point Cloud Data file format
VERSION 0.7
FIELDS x y z
SIZE 4 4 4
TYPE F F F
COUNT 1 1 1
WIDTH 1257
HEIGHT 1
VIEWPOINT 0 0 0 1 0 0 0
POINTS 1257
DATA ascii
-0.057965152 -0.048027657 -0.031609707
0.054492261 -0.046770599 -0.03267166
0.057123955 -0.048246462 -0.032592118
-0.056207865 -0.043043915 -0.031805556
-0.053477835 -0.041632377 -0.03249469
0.052939095 -0.041756507 -0.032118116
0.055072408 -0.043931428 -0.032342006
-0.051676076 -0.038021889 -0.031688701
-0.049334418 -0.036281899 -0.033721358
0.049105383 -0.037170339 -0.033948038
0.050993051 -0.038398515 -0.033432797
-0.047310408 -0.032175392 -0.032703839
0.044812329 -0.03012934 -0.030473838
0.047852114 -0.033413436 -0.032429587
-0.045883611 -0.028928222 -0.031939436
-0.043696109 -0.02746392 -0.032662824
0.042724028 -0.027237875 -0.03249073
0.046335056 -0.028970035 -0.030116228
-0.04078098 -0.022727152 -0.03183151
-0.038259443 -0.020940337 -0.032727078
0.038622081 -0.022076538 -0.032213647
0.041132879 -0.022536969 -0.032107119
-0.036499094 -0.018154997 -0.032351606
-0.034034226 -0.016363405 -0.033607006
0.035869341 -0.017993674 -0.033657171
-0.032861263 -0.012676498 -0.031834316
0.029351462 -0.011001076 -0.034180257
0.03332733 -0.013414681 -0.032832623
-0.031512294 -0.0087248338 -0.031417146
-0.02730184 -0.0075485902 -0.033202447
-0.024876634 -0.0063250768 -0.034516774
0.024863159 -0.0050900988 -0.033831287
0.027883666 -0.0076993909 -0.032898705
0.030983297 -0.008477198 -0.032192733
-0.02662698 -0.0028182988 -0.031322174
-0.023493545 -0.0016374281 -0.032420322
-0.019932508 -0.00048818783 -0.034305222
0.02354008 -0.0022071598 -0.032646529
0.02612986 -0.0023506014 -0.031581327
-0.021853708 0.0014297261 -0.031336907
-0.018942792 0.0026425885 -0.03300951
-0.014816976 0.0042792233 -0.034630101
0.018834295 0.0034843218 -0.033720158
0.022427401 0.0021106387 -0.032292373
-0.017080778 0.0073815524 -0.032340981
-0.013052729 0.0081332857 -0.033566583
-0.0080628591 0.0098000048 -0.034454346
0.013774214 0.0081385057 -0.033486899
0.017447045 0.0070970543 -0.032670606
0.02039293 0.0057731909 -0.031211553
-0.015627295 0.011552078 -0.030553719
-0.013162275 0.012205845 -0.03200807
-0.0071228049 0.012814776 -0.033283725
-0.0021186213 0.013741042 -0.03352211
0.0018722884 0.013028846 -0.033951633
0.0083923824 0.013125541 -0.033439472
0.011558523 0.012266711 -0.032259308
0.016864328 0.010141687 -0.030763691
-0.011580255 0.015231134 -0.03095866
-0.0067238901 0.017149063 -0.031556599
-0.0017984464 0.016981531 -0.032013278
0.0016546298 0.017137717 -0.031942531
0.0071777324 0.016575569 -0.031856664
0.011933813 0.015583821 -0.030216636
-0.0012205187 0.021390624 -0.030661033
0.0014734417 0.020991011 -0.030635437
-0.067808114 -0.057492446 -0.027205942
-0.06339138 -0.056967154 -0.027740385
0.063186586 -0.057352193 -0.027479088
0.066473939 -0.057272118 -0.027812272
-0.065209165 -0.054720305 -0.026704364
-0.062755406 -0.053670112 -0.028132845
0.05971045 -0.051511563 -0.028610773
0.062658228 -0.054202795 -0.027875343
-0.062140346 -0.049870044 -0.027991194
-0.058682445 -0.047729924 -0.028042562
0.057693746 -0.047164042 -0.027941948
0.060741175 -0.04970976 -0.027034858
-0.056569833 -0.043079566 -0.027563706
-0.054182708 -0.040634755 -0.027963055
0.054499503 -0.042196304 -0.028058512
0.056310542 -0.042844713 -0.027070593
-0.055192053 -0.038777299 -0.027535615
-0.052810512 -0.037983589 -0.027804557
0.049355995 -0.035647571 -0.028005298
0.052241106 -0.038464908 -0.027766792
-0.050829664 -0.032924503 -0.027063154
-0.04889397 -0.032114506 -0.027826509
0.047875252 -0.031922951 -0.028012058
0.051222134 -0.034106992 -0.025563559
-0.04670867 -0.028056111 -0.027295485
-0.043771025 -0.025773712 -0.028400984
0.043861602 -0.02705412 -0.027875323
0.046316989 -0.028812539 -0.027781695
-0.045197923 -0.024047444 -0.026726034
-0.042632416 -0.022928381 -0.027911199
0.03987227 -0.020224713 -0.026729571
0.041973144 -0.022100091 -0.026981654
-0.041092515 -0.01854343 -0.027210295
-0.038021341 -0.016940145 -0.027139455
0.038180664 -0.017522546 -0.02760078
0.040615357 -0.017966699 -0.026003668
-0.036423303 -0.013731755 -0.026873121
-0.033992745 -0.011714183 -0.027262291
0.033457026 -0.010594501 -0.027952556
0.036341827 -0.013204603 -0.026688349
-0.031458013 -0.0074063772 -0.027347842
-0.029112013 -0.0062015899 -0.028486243
0.029128922 -0.0061076563 -0.028734902
0.031839959 -0.0072782822 -0.027436946
-0.030591836 -0.003831648 -0.026286134
-0.028119788 -0.002262265 -0.027492156
0.027758164 -0.0018638477 -0.028377665
0.030817114 -0.0047286684 -0.027601276
-0.026210986 0.0017468679 -0.026698804
-0.022891007 0.002466466 -0.027945101
-0.01961959 0.0049866838 -0.029719913
0.023619927 0.0032243645 -0.02820996
0.026082072 0.0026855932 -0.026300307
-0.021767559 0.0069600651 -0.027298559
-0.018708706 0.0083346814 -0.028694948
0.018396579 0.0085774241 -0.02840448
0.022128431 0.0065843672 -0.027580729
-0.016927395 0.012585737 -0.028209416
-0.013481512 0.014128123 -0.028794101
0.01366319 0.013036869 -0.028664831
0.016387615 0.012000712 -0.027583946
0.020621026 0.010397489 -0.025960976
-0.016240289 0.016275659 -0.025846826
-0.012105804 0.017715463 -0.027656099
-0.007559102 0.018640613 -0.029299915
-0.0024132959 0.019719874 -0.029455513
0.0071915742 0.018389784 -0.028866464
0.011871859 0.01732322 -0.027005322
0.015825208 0.016084269 -0.026280655
-0.011309607 0.022105377 -0.025847163
-0.0069927108 0.023068406 -0.02658393
-0.0025035362 0.023178885 -0.028406562
0.0023955142 0.022933962 -0.028147889
0.0070955912 0.022418981 -0.026378851
0.01148812 0.021237299 -0.025778437
-0.0063675828 0.026919004 -0.025761653
-0.0022267394 0.027213691 -0.027047416
0.0023738737 0.027257767 -0.026541324
0.0058382843 0.027019275 -0.025495367
-0.0061179912 0.030304313 -0.025006488
-0.0017267738 0.031974699 -0.025804443
0.0011133581 0.032266576 -0.025676709
-0.0018437082 0.03595778 -0.025231717
0.00077194674 0.035755511 -0.025280537
-0.068511009 -0.057373673 -0.022740969
-0.064141259 -0.057226717 -0.022582872
0.063555323 -0.056945313 -0.022850594
0.067465052 -0.056794945 -0.022835055
-0.065406278 -0.054408893 -0.023333408
-0.06342122 -0.053108525 -0.022923302
0.062965475 -0.053481467 -0.022770487
0.065234281 -0.054642711 -0.020604998
-0.061784931 -0.04775703 -0.021972757
-0.059712492 -0.048046149 -0.02359218
0.058640081 -0.04776644 -0.022102837
0.060240529 -0.047192231 -0.023007028
-0.0602182 -0.04494423 -0.02097678
-0.056921508 -0.041745212 -0.022305556
0.057195731 -0.042961609 -0.022315972
-0.055680037 -0.037881486 -0.022055196
-0.054300085 -0.036693756 -0.022575781
0.052276593 -0.036827017 -0.022407442
0.055273697 -0.038789056 -0.021209251
-0.052107867 -0.03283504 -0.022090757
-0.049239814 -0.031530607 -0.022868663
0.048779465 -0.031937134 -0.022622431
0.052143276 -0.033832338 -0.021308625
-0.050322849 -0.029746383 -0.021418469
-0.047434352 -0.027900783 -0.021569118
-0.044844601 -0.025270164 -0.022785425
0.044650652 -0.026044864 -0.023492798
0.046644952 -0.028078778 -0.022555385
-0.046371784 -0.024550743 -0.022842083
-0.043136518 -0.022451773 -0.022417633
0.042705599 -0.021891592 -0.023405004
0.045666356 -0.024190992 -0.022699526
-0.041422937 -0.017796576 -0.022267317
-0.038990524 -0.016511874 -0.023438293
0.038873348 -0.016818341 -0.02266554
0.040819447 -0.018995918 -0.021900719
-0.036726233 -0.012457876 -0.02322684
-0.034448367 -0.010895324 -0.024513587
0.037012558 -0.012931148 -0.022301478
-0.035464503 -0.0081200916 -0.021386459
-0.033192903 -0.0073710843 -0.022622501
0.033029843 -0.0073147202 -0.023041289
0.03570845 -0.0085086878 -0.021403603
-0.031138843 -0.0033235971 -0.022376707
-0.029199759 -0.0012852331 -0.023623716
0.028688306 -0.0015407195 -0.022686929
0.031187424 -0.0029830562 -0.022038141
-0.027077654 0.0023242114 -0.022460163
-0.023753954 0.0048001772 -0.023655169
0.027624527 0.001910413 -0.022544004
0.030244397 0.00016547988 -0.02033812
-0.025129862 0.006434259 -0.022673421
-0.0232995 0.0084105767 -0.021883771
0.023356112 0.0085132057 -0.022312468
0.025272554 0.007027464 -0.02136402
-0.022067379 0.011941226 -0.021269562
-0.019234668 0.013651408 -0.022705123
0.018294672 0.012772267 -0.023843031
0.021677688 0.011875574 -0.021958593
-0.017341018 0.018011307 -0.022057567
-0.014111349 0.019138595 -0.023101103
0.013356713 0.018747473 -0.023704797
0.017191451 0.016313579 -0.022279548
-0.016217461 0.021000296 -0.020997597
-0.012483937 0.023443135 -0.022163302
-0.0088704396 0.024292804 -0.024298146
0.0083629824 0.023924686 -0.024026316
0.011972224 0.02228559 -0.022277648
0.015186014 0.021930188 -0.020382777
-0.011703002 0.026971377 -0.021487575
-0.0084508909 0.027960612 -0.02400486
0.0046853949 0.028049545 -0.024826199
0.0083584273 0.027146176 -0.022988422
0.010945619 0.02701311 -0.021197435
-0.010785208 0.031739287 -0.020997118
-0.0075415447 0.032499775 -0.023070386
-0.0036518332 0.033095937 -0.024751138
0.0032280879 0.032774217 -0.02464225
0.0075869858 0.032574575 -0.022213498
-0.010244193 0.035265714 -0.020892018
-0.0071053668 0.037710123 -0.022346286
-0.0031217108 0.037795033 -0.024203444
0.0025948368 0.038322575 -0.024159869
0.0071822419 0.037540022 -0.021649595
-0.0071140165 0.042696722 -0.021596089
-0.0032340025 0.042363197 -0.023620235
0.0028467453 0.042061456 -0.023435241
0.0065597375 0.042539485 -0.021337008
-0.0064860238 0.04711245 -0.021362634
-0.0028995001 0.047456704 -0.023013609
0.0030693635 0.047358368 -0.022542758
0.0060968613 0.047810815 -0.020837812
-0.005855232 0.052511822 -0.020692257
-0.0029730531 0.052078515 -0.022101203
0.0037498055 0.053086724 -0.021233711
0.0053820075 0.052565921 -0.02035577
-0.0053632404 0.057940152 -0.02019049
-0.0022120061 0.058497548 -0.021196876
0.0024408561 0.05734548 -0.02105087
0.0050537111 0.056684647 -0.020011254
-0.068511695 -0.057669371 -0.017296458
-0.064480171 -0.057479445 -0.016677223
0.064205773 -0.056626175 -0.017473236
0.068098135 -0.056777149 -0.017514944
-0.065623075 -0.054208804 -0.018452309
-0.063506499 -0.053102732 -0.017161785
0.063609824 -0.053400964 -0.017177252
0.065876476 -0.054570995 -0.016627295
-0.061646778 -0.048197199 -0.017659565
-0.058848731 -0.045728374 -0.017488915
0.059097409 -0.045929778 -0.017618287
0.060760852 -0.046804179 -0.017011199
-0.057890259 -0.041735969 -0.017281061
0.057533693 -0.041987542 -0.01684813
-0.055992648 -0.038314641 -0.016612075
-0.053882506 -0.036359198 -0.017320422
0.052740939 -0.036639933 -0.017504102
0.056106567 -0.039178647 -0.017769258
-0.052120544 -0.032949291 -0.01734804
-0.049327653 -0.03063868 -0.017765531
0.049091645 -0.031452734 -0.017056469
0.051880132 -0.033063386 -0.017535923
-0.050384182 -0.029190138 -0.01705071
-0.047753256 -0.027113052 -0.017951259
0.046647754 -0.026981518 -0.017703224
0.050210088 -0.029642379 -0.017068557
-0.045843497 -0.023557313 -0.016725572
-0.043160994 -0.021381415 -0.01786208
0.043594144 -0.022399643 -0.017306924
0.045843825 -0.024307273 -0.016880881
-0.041288394 -0.018563392 -0.017867263
-0.039396305 -0.015856713 -0.016928069
0.0393117 -0.015948635 -0.018158585
0.041537832 -0.0173731 -0.018405696
-0.040401094 -0.014458179 -0.017349014
-0.038117263 -0.012083902 -0.01768315
0.037863456 -0.013186615 -0.017068572
-0.036156435 -0.0080693476 -0.017082639
-0.033680592 -0.0062599946 -0.017906062
0.034063 -0.007132113 -0.017543195
0.035871953 -0.0094358111 -0.01757445
-0.032032523 -0.0019792703 -0.01761115
-0.029303856 -0.00065740454 -0.017874276
0.029485334 -0.00068131293 -0.017815202
0.032210518 -0.003156624 -0.016722856
-0.030482007 0.00089225924 -0.016532142
-0.028174683 0.0030021537 -0.017476907
0.028363431 0.0030837781 -0.01751064
0.030412046 0.0009800077 -0.016940501
-0.026384229 0.0064844862 -0.018276477
-0.023931673 0.0084540742 -0.017667422
0.024244804 0.0078922976 -0.018146716
0.026434619 0.0064256638 -0.017684709
-0.022448672 0.012411589 -0.017471703
0.019734647 0.014231088 -0.017200649
0.022177523 0.012318793 -0.017793221
-0.020946447 0.015880663 -0.017602932
-0.018417638 0.018270714 -0.017557755
0.018754929 0.017153259 -0.017337108
0.020716418 0.015285848 -0.017918903
-0.01710863 0.022032555 -0.016623234
-0.014121883 0.02360642 -0.018338446
0.013588915 0.023219911 -0.018295351
0.015878771 0.022155626 -0.017280092
-0.015393537 0.025731422 -0.01527709
-0.013144259 0.02747133 -0.01782174
0.0097577842 0.029525084 -0.019977568
0.012072666 0.027014446 -0.017645093
-0.012284626 0.032479584 -0.017681299
0.0095003946 0.03327534 -0.019469144
0.011021039 0.032659322 -0.017494628
-0.011420634 0.037514649 -0.017119352
-0.0092824716 0.038802609 -0.018958911
0.009305614 0.038162731 -0.018634284
0.010384081 0.037911851 -0.016369859
-0.010620323 0.042186193 -0.017035449
-0.0093435654 0.042387862 -0.018326836
0.0089161592 0.042966399 -0.018069236
0.010581407 0.041437246 -0.016131166
-0.010593007 0.046354268 -0.016221162
-0.0089874137 0.047644209 -0.017962296
0.0084578414 0.047556628 -0.017835302
-0.01001 0.050145898 -0.015879558
-0.0084693749 0.052304797 -0.017582927
0.0046806582 0.054438848 -0.016471304
0.0061182892 0.052272916 -0.018534444
-0.0071002012 0.057491235 -0.018431744
0.0046375571 0.056456432 -0.01776964
0.0062586819 0.05761997 -0.016879138
-0.068265654 -0.057944678 -0.012387851
-0.064619608 -0.057917926 -0.013784636
0.064442679 -0.056176938 -0.012536556
0.068615682 -0.056538589 -0.012435379
-0.065772653 -0.054516748 -0.012990228
-0.063765183 -0.053117413 -0.013035947
0.063847445 -0.052669782 -0.011788017
0.065981589 -0.05421906 -0.012667519
-0.061884783 -0.048278354 -0.012017486
-0.059108987 -0.046286941 -0.013165912
0.058518931 -0.046567168 -0.011348957
0.061018143 -0.046594292 -0.013025127
-0.060388368 -0.044880692 -0.012563855
-0.0571086 -0.042580415 -0.012129324
0.058437828 -0.042231571 -0.012452099
0.060004063 -0.04457308 -0.013314106
-0.055983357 -0.037503172 -0.013120117
-0.053817272 -0.035980023 -0.013096045
0.052160401 -0.036541037 -0.012276363
0.055726875 -0.037854016 -0.012970232
-0.052406278 -0.032917731 -0.012885333
-0.049533941 -0.030742025 -0.013020148
0.049002483 -0.031922814 -0.011721864
0.051814087 -0.0327291 -0.012677556
-0.050484397 -0.02914259 -0.012238024
-0.047996417 -0.027714476 -0.012067933
0.047522202 -0.027561329 -0.013315515
-0.046251915 -0.024031805 -0.012836223
-0.043998361 -0.021254353 -0.011990093
0.044092573 -0.022329982 -0.013064749
0.045697551 -0.023782045 -0.011784746
-0.042115938 -0.017727561 -0.012005186
-0.039492697 -0.015353037 -0.012127664
0.03963941 -0.015605116 -0.012402399
0.041775528 -0.017875817 -0.012416244
-0.040457591 -0.01388197 -0.01092042
-0.03805447 -0.012322485 -0.012335327
0.038176507 -0.012922078 -0.012593867
0.040567607 -0.014200805 -0.01339379
-0.036367234 -0.0080148894 -0.013043589
-0.034557097 -0.0062074345 -0.011798495
0.033679459 -0.0062141875 -0.01229139
0.036075056 -0.0080751935 -0.01378946
-0.03270625 -0.0026921742 -0.012691342
0.029732339 -0.00014525626 -0.012257491
0.032241832 -0.0025871815 -0.012399403
-0.030646047 0.0011552071 -0.011549488
-0.028606053 0.0031074139 -0.012704286
0.028600795 0.0031958551 -0.011936062
0.030867824 0.00080552622 -0.012661545
-0.026440743 0.007002058 -0.01175836
-0.02480527 0.0075253146 -0.01421446
0.023973836 0.0088011203 -0.011612711
0.026336441 0.0070003597 -0.01228526
-0.022427395 0.013010045 -0.011950873
0.022220526 0.011959895 -0.012225588
-0.021110149 0.016055562 -0.012129146
-0.019213103 0.018251942 -0.012607489
0.018584013 0.01865044 -0.012799826
0.020795405 0.016379986 -0.011893004
-0.017594913 0.022360828 -0.0127473
-0.014602403 0.024307912 -0.01257937
0.014030555 0.02402739 -0.012140216
0.016689625 0.022717798 -0.012820347
-0.015443556 0.027000256 -0.012482918
-0.014280368 0.028155839 -0.012275558
0.013272417 0.027296009 -0.012424565
0.015322421 0.025731958 -0.012894236
-0.013730266 0.032096509 -0.012709848
0.012794564 0.032089859 -0.012628761
-0.012242677 0.037952144 -0.013249217
0.01080584 0.038367406 -0.012835006
-0.011497538 0.041977525 -0.012931654
0.011059363 0.042577416 -0.011312939
-0.0106837 0.047553886 -0.012435621
0.0095352465 0.049054082 -0.011845594
0.010709486 0.046881363 -0.011495507
-0.010184225 0.050970931 -0.012267665
-0.0097351801 0.05310794 -0.012597041
0.0080632567 0.052772336 -0.012324492
-0.0090136193 0.058321003 -0.012153635
0.0081335912 0.057540186 -0.013451337
-0.068401888 -0.058158975 -0.0078746947
-0.064026952 -0.057632487 -0.0082519157
0.064474262 -0.056217566 -0.0075096763
0.068765581 -0.056108277 -0.0075974781
-0.065391161 -0.054715529 -0.0074676964
-0.062706701 -0.052788869 -0.007952109
0.064139724 -0.052279785 -0.0068545281
0.065905392 -0.054255638 -0.0074399584
-0.061550755 -0.047717482 -0.0075163902
-0.058682367 -0.046536259 -0.0063085323
0.058425453 -0.046408527 -0.0066112494
0.06213928 -0.048112851 -0.007879382
-0.057454325 -0.042515337 -0.0069480017
0.058166683 -0.042105708 -0.0079127047
0.06012293 -0.044859082 -0.0057295631
-0.055863518 -0.037797321 -0.0082941614
-0.053560607 -0.037635617 -0.00775768
0.051614363 -0.036583576 -0.0073666605
0.056170698 -0.038575504 -0.0075210207
-0.052091449 -0.032704186 -0.0072709671
-0.049402751 -0.031489007 -0.0069690701
0.048845842 -0.031904217 -0.0079932371
0.052483577 -0.032932278 -0.0065006325
-0.050369598 -0.029218663 -0.0090180403
-0.047791619 -0.02808951 -0.0082187075
0.047239292 -0.026842957 -0.0075253802
0.05029263 -0.029393118 -0.0077224225
-0.045655191 -0.023330808 -0.0072110924
-0.043359917 -0.021401133 -0.0080513321
0.04370131 -0.021908334 -0.0072007594
0.047153201 -0.024653412 -0.0068466286
-0.041881729 -0.016855523 -0.0078008915
-0.039666813 -0.015617555 -0.0093346545
0.039625332 -0.015741415 -0.0081474399
0.041010652 -0.017605748 -0.0077751633
-0.040643882 -0.014327978 -0.0084978295
-0.037830155 -0.012355629 -0.0078213383
0.037741151 -0.011885352 -0.0074175913
-0.035752088 -0.007589953 -0.0078268582
-0.034114596 -0.0067913146 -0.0072584436
0.034174982 -0.0071858191 -0.0068722651
0.035484336 -0.0085463021 -0.0084348414
-0.032231547 -0.0027821416 -0.0070539736
0.029636247 -0.00039797786 -0.007889335
0.032186728 -0.0020217805 -0.0076941578
-0.030595444 0.00099395507 -0.0078053619
-0.028586032 0.0033905525 -0.0081002368
0.028402025 0.0033015588 -0.0073086708
0.030650828 0.00085126288 -0.0084019434
-0.026108921 0.0078288335 -0.0072854441
-0.023938024 0.0082700364 -0.0069521056
0.023922935 0.0086953519 -0.0073674619
0.026153013 0.0071609817 -0.0071925735
-0.022329854 0.0125916 -0.0071237767
-0.019774422 0.014499976 -0.0064349943
0.02205183 0.012255291 -0.0074171247
-0.020774256 0.01638926 -0.0082151117
-0.018784899 0.018026644 -0.0076269084
0.018188873 0.017584788 -0.0073319511
0.02015502 0.017069258 -0.0091075869
-0.016842255 0.021463193 -0.007873714
-0.013753323 0.023669839 -0.0072342386
0.013739554 0.023962855 -0.0072285803
0.016455283 0.021566428 -0.0074167275
-0.015270791 0.02533461 -0.0097466586
-0.012535603 0.027067123 -0.0074662757
0.0099848555 0.029393796 -0.005064744
0.011980196 0.027384235 -0.0072191162
-0.011977592 0.032471705 -0.0078831082
-0.0096099759 0.034038309 -0.0055661835
0.0097589297 0.033114839 -0.005533726
0.010856707 0.032629505 -0.0074608293
-0.011292084 0.037290417 -0.0081514092
-0.0092182951 0.038165692 -0.0057668826
0.0093634147 0.03861345 -0.0067171594
0.010360175 0.038615283 -0.0087027112
-0.010544777 0.042524409 -0.008911889
-0.0087438142 0.042981405 -0.0057264483
0.0084564751 0.042320061 -0.0066187079
0.010774443 0.042811748 -0.0091194408
-0.01039697 0.046640497 -0.0093390159
-0.008567377 0.047874942 -0.0067340857
0.0044124527 0.048354 -0.0055210846
0.0084492033 0.047949713 -0.0082092341
0.010689809 0.046333455 -0.0092656873
-0.0079250587 0.05241739 -0.0070507801
0.0043636477 0.052912183 -0.0058582434
0.0078735426 0.052007627 -0.0088122012
-0.0070923008 0.057983208 -0.0073936651
-0.0044290815 0.057779618 -0.0051358137
0.0032651259 0.059416305 -0.0056413822
0.0065853689 0.058862943 -0.0085464939
-0.067468062 -0.058200773 -0.0024730552
-0.063447051 -0.057740785 -0.0024071741
0.063949659 -0.056154937 -0.0020510126
0.068510614 -0.0563007 -0.0028862737
-0.062507451 -0.053811923 -0.0026206053
0.063738137 -0.05292397 -0.00261487
0.06664636 -0.054578993 -0.0027605684
-0.060905509 -0.04806298 -0.0024375597
-0.058263253 -0.046671212 -0.0014987753
0.059003435 -0.047465548 -0.0016034611
0.06169194 -0.048133697 -0.00167612
-0.057035781 -0.04184296 -0.0026875692
-0.054988068 -0.040588003 -0.0042864303
0.054852951 -0.041633237 -0.0023924848
0.058099318 -0.042353421 -0.0021891496
-0.055719722 -0.039283525 -0.0016720113
-0.053064533 -0.037609901 -0.0020565116
0.052746814 -0.036112145 -0.0034004347
0.055675291 -0.038633406 -0.0022641146
-0.051183008 -0.032580532 -0.0025789898
-0.048409782 -0.031329207 -0.00227607
0.048873529 -0.031748548 -0.0030425109
0.052122571 -0.03312638 -0.0026390334
-0.047103524 -0.027982967 -0.002829642
-0.044094011 -0.025431164 -0.0014511438
0.046976022 -0.027709465 -0.0020833013
-0.045777656 -0.023587126 -0.0026864579
-0.04252268 -0.022034207 -0.0019831876
0.043584511 -0.02264129 -0.002042932
0.04594516 -0.02320384 -0.0045434325
-0.041526485 -0.018643312 -0.0028370856
-0.039257962 -0.017201301 -0.0022090215
0.039190121 -0.016084798 -0.0031492927
0.041487344 -0.017952224 -0.0022534018
-0.040065698 -0.014442069 -0.0034270599
-0.037330218 -0.012499234 -0.0035960309
0.034918509 -0.010833302 -0.00033168605
0.036853727 -0.012751955 -0.0019588091
-0.035722431 -0.0076236869 -0.003715809
-0.033828292 -0.006813956 -0.0018721438
0.033149999 -0.0071158013 -0.0026913898
0.036090005 -0.0095136249 -0.0031778121
-0.031617425 -0.0032049469 -0.0026216938
-0.028969865 -0.00082178874 -0.0027624711
0.029276606 -0.0016444006 -0.0025109593
0.031518515 -0.0022229538 -0.0035535416
-0.027041048 0.0034304936 -0.0022449386
0.024811106 0.004412618 -0.0016617773
0.027456095 0.0032156073 -0.0031207209
-0.025925342 0.0064498931 -0.0025532288
-0.02321131 0.007572663 -0.0020997755
0.02286581 0.0079754144 -0.0023571542
0.02630611 0.0058909613 -0.00375187
-0.021731449 0.012540888 -0.0034110083
-0.018748382 0.013956015 -0.0020516452
0.01875091 0.013512407 -0.0021076745
0.021310471 0.011716651 -0.0028088423
-0.020346288 0.015279602 -0.0040917192
-0.017400771 0.017371731 -0.0027721368
-0.01492748 0.018279746 -0.0020150177
0.01369031 0.018764487 -0.0012729432
0.016344363 0.017498601 -0.0029469747
-0.016079759 0.02080977 -0.0037277939
-0.012050653 0.022396177 -0.0021846602
-0.0084117232 0.023988541 -0.00095347868
0.008603666 0.023999138 -0.00058113527
0.012727764 0.022343352 -0.0025065299
0.015668532 0.020763109 -0.0033144318
-0.011107892 0.026725579 -0.0037802532
-0.007723012 0.027486974 -0.0019687635
-0.0032716987 0.027599253 -0.00035454388
0.0035840683 0.029174011 -0.00011459846
0.0078711603 0.027320622 -0.0017545273
0.010797298 0.027128709 -0.0036846953
-0.010836923 0.032405596 -0.0046985717
-0.0072176508 0.032422841 -0.0026085901
-0.00204245 0.032488864 -0.00096202287
0.0020746505 0.031709254 -0.00033256112
0.0071191308 0.032949641 -0.0025371595
-0.0071750823 0.036801744 -0.0032635138
-0.0024336737 0.03717659 -0.0017053072
0.0029603152 0.03719335 -0.0017858727
0.0066168522 0.037898723 -0.0033907057
-0.0068664132 0.042465277 -0.0038799222
-0.0026942811 0.04230861 -0.0023767285
0.0023298948 0.041791853 -0.0022858451
0.0063478635 0.042042345 -0.004231411
-0.006312483 0.04724336 -0.0043750103
-0.0029784557 0.047383409 -0.0031503392
0.0021289519 0.047532745 -0.0036319322
0.0059526968 0.046806376 -0.0041434374
-0.005593271 0.051795561 -0.0047163684
-0.0033663216 0.052056301 -0.0040161181
0.0020055154 0.052021068 -0.0041707219
0.0054862686 0.051622879 -0.0049496237
-0.0050478755 0.055268362 -0.0048522484
-0.001837142 0.058618352 -0.0047023804
0.00088854693 0.059085339 -0.0047143763
-0.06667082 -0.058187548 0.0021602388
-0.062661059 -0.057297688 0.0025467467
0.063530274 -0.056416351 0.0025234695
0.067440495 -0.056592356 0.0022408082
-0.061927643 -0.053708449 0.0023782663
-0.059620004 -0.052678205 0.0035423625
0.063651614 -0.053420324 0.0023323665
0.06614358 -0.054800186 0.0026402946
-0.060615435 -0.049430847 0.0017865346
-0.0573273 -0.047593534 0.0030821997
0.059014939 -0.04655223 0.0030304773
0.06078577 -0.047914397 0.0028605568
-0.055703644 -0.041965742 0.0018132214
-0.054025166 -0.043090284 0.0045382818
0.054241817 -0.041622024 0.0025398633
0.056949824 -0.041948445 0.0024635498
-0.053003229 -0.03780558 0.0026338988
0.052387368 -0.036579818 0.0026248626
0.055115338 -0.039348446 0.0029048601
-0.05035435 -0.033745129 0.0023093503
-0.047849242 -0.032138623 0.0028165479
0.048751481 -0.031504557 0.0025235659
0.051753212 -0.033664223 0.0010828598
-0.046310898 -0.027253171 0.0019406975
-0.043589786 -0.026545607 0.0027682299
0.044308845 -0.026533443 0.0038003891
0.046733771 -0.027415909 0.0026928734
-0.045303822 -0.024802992 0.0021497537
-0.042751722 -0.022459703 0.0028020602
-0.039790012 -0.020758349 0.002594251
0.03963428 -0.020103581 0.0041954881
0.042468648 -0.022287309 0.0029389386
0.045598328 -0.024542585 0.0012206186
-0.041088838 -0.018522233 0.0023671461
-0.03803831 -0.017358685 0.0025536979
0.038634196 -0.017563755 0.0021872565
0.04079764 -0.018257156 0.0020540452
-0.036914703 -0.013307334 0.0024098882
-0.033917569 -0.012206977 0.0038138637
0.03354108 -0.010872584 0.0031109657
0.036442894 -0.012903933 0.0023879209
-0.035519004 -0.0088505493 1.2418334e-05
-0.03239629 -0.0076982579 0.0027276922
0.029781939 -0.0065676216 0.0042919791
0.031454735 -0.0075172405 0.0032451891
-0.030448625 -0.0034830477 0.003400092
-0.028718892 -0.0016263194 0.0023148677
0.027380254 -0.001904994 0.002678033
0.030486353 -0.003145278 0.0019682369
-0.026303595 0.002574086 0.0024560068
-0.023549536 0.0035847756 0.0031899516
0.023297004 0.0035508571 0.0032527491
0.026037747 0.001976558 0.0023744691
-0.025325853 0.0053090448 0.0010233222
-0.022242168 0.0071838233 0.0021055839
-0.018434364 0.0091346838 0.0033134068
0.01928111 0.0090241246 0.0030846407
0.021859881 0.0070554563 0.0021566681
-0.020582335 0.010914247 0.00059404765
-0.016963178 0.012229722 0.0028557414
-0.013698133 0.013452344 0.0039410018
0.014178238 0.014055979 0.0029519952
0.016958622 0.012435942 0.0021280295
0.020925902 0.010041744 0.0014422238
-0.016299175 0.016280111 0.0014306842
-0.012573367 0.017609719 0.002023061
-0.0086266343 0.019479344 0.0034625698
-0.0038755382 0.019649733 0.0042664409
0.0039723115 0.019546384 0.0042587193
0.0088075455 0.017947352 0.0039935918
0.012860762 0.017575718 0.0018825416
0.015969301 0.016199898 0.00070353044
-0.011887405 0.020590369 0.0014031657
-0.0070601609 0.022344921 0.0019508488
-0.0016258234 0.023708135 0.0038348644
0.0016561638 0.023713972 0.0032572867
0.0073851007 0.022595484 0.0017092451
0.011805908 0.020666668 0.0013109774
-0.0062513012 0.026783109 0.0007517878
-0.0014632706 0.027179657 0.0019220879
0.0015648635 0.027355334 0.001755516
0.0059766714 0.026675958 0.00046566676
-0.0011946193 0.032852933 0.00079843804
0.0012441676 0.031679619 0.00045881761
-0.065592609 -0.05821443 0.0064669526
-0.062762849 -0.057597574 0.0077949474
-0.059615929 -0.05774216 0.0085102068
0.062612332 -0.056478176 0.0074455263
0.066309243 -0.056400348 0.0072553582
-0.061083481 -0.054130968 0.0068996456
-0.058013324 -0.052506953 0.0076033422
0.059540767 -0.050862398 0.0078234188
0.063300662 -0.053841081 0.0074248826
0.065372907 -0.054882526 0.0067472607
-0.056432828 -0.048396029 0.0068954001
-0.054556243 -0.046712097 0.0082520442
0.058241658 -0.047273301 0.0078523569
0.06089586 -0.049861588 0.0070522241
-0.055378474 -0.044803079 0.0093009844
-0.05248012 -0.041731536 0.0080755362
0.053489853 -0.041184418 0.0089290515
0.055997469 -0.043073997 0.0083321761
-0.051349197 -0.03763267 0.0074357931
-0.048556436 -0.036721952 0.0079577249
0.04981079 -0.037425864 0.0094042392
0.051771034 -0.03764163 0.0079705548
-0.047658715 -0.032880079 0.006996878
0.047206752 -0.031819902 0.0074223508
0.050829414 -0.034352984 0.0059355553
-0.045428123 -0.028685182 0.0065732147
-0.042829961 -0.026962588 0.0079426803
0.043622114 -0.027288396 0.0074032843
0.046108682 -0.02894851 0.006086173
-0.041700866 -0.022436121 0.0068392935
-0.037969824 -0.021633336 0.0084602684
0.039136689 -0.021596033 0.0076943873
0.041046638 -0.023212705 0.0066576749
-0.040261157 -0.018859556 0.0051343758
-0.036629606 -0.017288011 0.0072832978
-0.033984862 -0.015882697 0.0082919737
0.034477569 -0.016505061 0.0093469247
0.03752891 -0.017917885 0.0072499448
0.040665783 -0.019674648 0.0057277675
-0.032839529 -0.012661102 0.0070449109
0.029373448 -0.010266135 0.0094917938
0.032135263 -0.011643365 0.0073814238
0.035384614 -0.013100314 0.0068058684
-0.031443451 -0.0086826812 0.0065726824
-0.027763983 -0.0068187057 0.0081671644
0.028255302 -0.0069067082 0.007563781
0.031861886 -0.0092206411 0.0066178092
-0.026365101 -0.003187967 0.0076001883
-0.023635525 -0.0021177009 0.0087700803
0.022987759 -0.0017925316 0.0086227283
0.026367269 -0.0039640795 0.0069176098
-0.025479114 0.00076454936 0.0063605332
-0.022740593 0.0020206112 0.007919779
-0.018578008 0.0021401742 0.0093998089
0.018517971 0.0028251908 0.0088622188
0.022105234 0.001623939 0.006999651
0.025010731 0.0009243869 0.0060295956
-0.020278461 0.0063210838 0.0069878139
-0.017213264 0.0074757058 0.0079851113
-0.013287738 0.008612657 0.0083171586
0.0091771539 0.0094774263 0.0094598616
0.012810744 0.0084935445 0.0087823067
0.017564511 0.0074833175 0.0069493866
0.020777196 0.0054634567 0.0064771427
-0.016433662 0.011573313 0.0058551114
-0.012644577 0.011870625 0.0069649387
-0.0076578786 0.013580316 0.0079907002
-0.0025455558 0.013954912 0.0090463581
0.0025511435 0.013614113 0.0083480831
0.0080165053 0.012899648 0.0081799552
0.011755079 0.012626368 0.0069781085
0.015277969 0.011262516 0.0065696971
-0.010860915 0.016004752 0.0062574362
-0.0071095605 0.017559629 0.0067920522
-0.002416597 0.018155303 0.0070451968
0.001780847 0.017643424 0.0071497886
0.0067045786 0.016906917 0.0066964673
0.011158775 0.016466988 0.0053682965
-0.0055825561 0.020185202 0.0055465107
-0.0017543082 0.021240588 0.0057005589
0.0018057104 0.021371271 0.0055305348
0.0056460463 0.020402908 0.00521984
-0.062965728 -0.058382943 0.012301988
-0.058332991 -0.057535209 0.012470599
0.059604332 -0.055808686 0.013558867
0.063636273 -0.056317993 0.013110247
0.065397367 -0.056340035 0.010913196
-0.060115855 -0.054313447 0.010081262
-0.057833806 -0.05373621 0.012557587
-0.054801401 -0.052223798 0.014093874
0.059128057 -0.052132424 0.013112921
0.062060174 -0.054003373 0.012659236
-0.056347612 -0.049288753 0.012605654
-0.053175498 -0.046747737 0.012462795
0.05459616 -0.046771586 0.013544872
0.056840096 -0.046961736 0.012810647
-0.051985133 -0.042724498 0.011990123
-0.049030874 -0.041647557 0.013344306
0.053787321 -0.042693991 0.012560903
0.055546902 -0.044155844 0.011527347
-0.0505176 -0.038355675 0.011179652
-0.048643794 -0.037100926 0.012180171
0.048521638 -0.037069276 0.01233482
0.05166525 -0.038756676 0.011592922
-0.047031511 -0.033885129 0.011664791
-0.043249935 -0.031886969 0.013406147
0.043567788 -0.031644024 0.013365064
0.046995033 -0.034018919 0.011482831
-0.045041192 -0.029543618 0.010273029
-0.042205837 -0.027416661 0.011847909
-0.039207984 -0.027481282 0.01350251
0.039681517 -0.025110699 0.011549881
0.041659754 -0.027132962 0.012527065
-0.040772341 -0.023780778 0.010776646
-0.03742189 -0.022467101 0.012194188
-0.034432724 -0.02102753 0.013403408
0.038579289 -0.023419306 0.013473284
-0.036274441 -0.018256336 0.011097234
-0.032634821 -0.01790791 0.013240268
-0.029740479 -0.015454154 0.013767038
0.032830819 -0.016495695 0.012870818
0.035507597 -0.018415246 0.011297088
-0.032008819 -0.013156965 0.011450168
-0.028348751 -0.01206505 0.012946363
0.028884236 -0.010631254 0.010499297
0.031440411 -0.012738135 0.012327821
-0.026849095 -0.0074590393 0.012167124
-0.02341599 -0.0062128217 0.012827273
-0.018799674 -0.0050001536 0.0147817
0.019686906 -0.0057462077 0.014922035
0.023272276 -0.0065584183 0.012644895
0.02660753 -0.008104682 0.011437955
-0.025350861 -0.0036802734 0.010863433
-0.022888476 -0.0024442323 0.011128953
-0.017877284 -0.0023073598 0.013537645
-0.013940136 -0.00069968955 0.014496003
0.018457888 -0.0017252249 0.012731106
0.021553108 -0.0028227458 0.011567473
-0.021324188 0.00070044119 0.010938658
-0.01722575 0.0026633618 0.011898858
-0.013185068 0.0032574013 0.013496014
-0.0068418775 0.0035930111 0.01417257
-0.0035147069 0.0043220124 0.014331029
0.0024745958 0.0045990725 0.014265838
0.0087042749 0.0037401961 0.014262531
0.012884041 0.0036582432 0.013288992
0.016742304 0.0020816596 0.01187351
-0.016215095 0.0061465651 0.010547828
-0.012698561 0.0068155588 0.011101772
-0.0079444805 0.0075339377 0.012404585
-0.0032579396 0.0084088929 0.012218827
0.0020399322 0.007981333 0.012062376
0.0072812364 0.0074078646 0.012836059
0.011608279 0.0072059049 0.011566022
0.01530413 0.0055219145 0.011190618
-0.0067980979 0.012347676 0.010507098
-0.0033160998 0.012262134 0.011247413
0.00171733 0.011757213 0.01104237
0.0054555302 0.013169043 0.010141437
-0.060730767 -0.058670908 0.01734465
-0.058343086 -0.057764184 0.017742215
-0.054246161 -0.058104895 0.019186947
0.057879586 -0.056193523 0.018614748
0.062879421 -0.056415517 0.016880468
-0.056723285 -0.05333316 0.016130136
-0.053667575 -0.052166417 0.018743731
0.057395067 -0.053156439 0.017862396
0.061153404 -0.05445312 0.016733604
-0.052318215 -0.047552388 0.01691241
-0.048676014 -0.046457857 0.0187265
0.053490113 -0.04724009 0.018663192
0.055884838 -0.048498005 0.01741842
-0.050361726 -0.043606751 0.017391812
-0.047715109 -0.041572653 0.01804452
-0.044128314 -0.040406108 0.019526679
0.049418617 -0.043192081 0.018557001
0.051870286 -0.042455658 0.01580761
-0.046608377 -0.038484953 0.017411491
-0.042780116 -0.036774494 0.018293524
0.04319112 -0.035792902 0.018961811
0.046612278 -0.03752853 0.01732404
-0.045927137 -0.034926791 0.015270937
-0.041289639 -0.032990269 0.01780038
-0.038149536 -0.031860881 0.019165978
0.039985567 -0.031506013 0.018564356
0.042391215 -0.033263821 0.017973481
0.045812827 -0.0333382 0.015157619
-0.040968042 -0.029094297 0.016359629
-0.037269898 -0.027300667 0.017780155
-0.034351099 -0.025929326 0.018126806
0.038039953 -0.02726466 0.017937448
0.040416416 -0.028443616 0.01684436
-0.035845082 -0.023649249 0.016575066
-0.032757387 -0.021862697 0.017870365
0.033232253 -0.021130715 0.018476423
0.036192376 -0.022947706 0.016888661
-0.031130821 -0.017733322 0.017203996
-0.028852208 -0.016743265 0.017862782
-0.023852903 -0.015601674 0.019155506
0.024103206 -0.015719533 0.019799719
0.028839951 -0.016394857 0.017813684
0.032063525 -0.018675737 0.017528225
-0.030512379 -0.01466026 0.015265484
-0.027232684 -0.012591953 0.016267058
-0.022944063 -0.011717243 0.017864414
-0.018472157 -0.011013796 0.019369531
0.022927308 -0.010731114 0.018843401
0.02632387 -0.0128599 0.017879153
-0.025716621 -0.0097123049 0.01569083
-0.022354586 -0.008437573 0.016944662
-0.017675381 -0.0066475654 0.016919296
-0.012951501 -0.006117051 0.018608321
0.012908268 -0.0060793622 0.018866189
0.016903032 -0.0067466283 0.018584916
0.021892345 -0.0075512012 0.016193399
-0.020029057 -0.0046644909 0.016221959
-0.016514279 -0.0041362932 0.016090965
-0.012393516 -0.0030376511 0.017633503
-0.0068340963 -0.0024442056 0.018254967
-0.0034604967 -0.0027217611 0.018848963
0.001886075 -0.0018388033 0.018751236
0.0080500413 -0.0020168109 0.018863361
0.012384254 -0.0018917382 0.017789049
0.017121421 -0.0028439825 0.016065896
-0.0052152812 0.0018766553 0.015643673
-0.0020734454 0.0015271625 0.0169417
0.0020207358 0.0024057361 0.016610835
0.0072328579 0.0018984361 0.016799707
0.011868605 0.0011895823 0.016167145
-0.0043353927 0.0053165252 0.015590612
0.005348851 0.0057914597 0.015119569
-0.057434049 -0.058463808 0.022511851
-0.051791113 -0.058383975 0.023085615
0.054271575 -0.055961397 0.023744378
0.058552586 -0.056367509 0.02333427
0.060547799 -0.056211129 0.021506894
-0.055101868 -0.054587509 0.020089779
-0.052179165 -0.052784115 0.021783337
-0.048796643 -0.051711008 0.023068825
0.053857442 -0.052600324 0.023453547
0.057655938 -0.054337613 0.02305162
0.060263351 -0.054840375 0.020534469
-0.051336836 -0.048614133 0.020629603
-0.047524661 -0.047472406 0.022791773
-0.044310875 -0.046091422 0.024221327
0.049376957 -0.047532123 0.023537207
0.05271706 -0.048243742 0.021953067
0.055091187 -0.049717627 0.02049535
-0.046776969 -0.042735539 0.021384854
-0.042504195 -0.042095881 0.023512525
0.043971088 -0.040053595 0.02262632
0.047161903 -0.042605896 0.022839276
0.051454175 -0.044746105 0.020317806
-0.04570438 -0.039764289 0.020449916
-0.041687496 -0.038395185 0.022202423
-0.038877584 -0.037765924 0.023456374
0.03973842 -0.037536174 0.024985109
0.04216671 -0.036770679 0.022542063
0.045325913 -0.039832234 0.020585407
-0.037079167 -0.032774135 0.022681192
-0.033665553 -0.031562813 0.024290532
0.033998024 -0.030244155 0.023954827
0.038589511 -0.032237705 0.022943038
0.040716607 -0.034108341 0.021940038
-0.036227845 -0.028339174 0.021300811
-0.0327022 -0.027390489 0.023000341
-0.029088194 -0.028077256 0.0247126
0.032840431 -0.026831329 0.024297297
0.036660615 -0.028183861 0.021808991
-0.031723615 -0.023005081 0.02123728
-0.02711769 -0.02238504 0.022713123
-0.024669131 -0.022946781 0.023984071
0.024340933 -0.022206055 0.024828287
0.028272638 -0.021755956 0.023202222
0.031894349 -0.021913176 0.020840745
-0.030207844 -0.019940084 0.020107504
-0.026117213 -0.017346032 0.021383727
-0.02266809 -0.01678185 0.022952037
-0.017300555 -0.017216938 0.024201928
-0.012688952 -0.015294583 0.024874775
0.01796978 -0.015977068 0.023721397
0.022462299 -0.016792111 0.023329239
0.027888566 -0.018501446 0.021371171
-0.021087719 -0.013447649 0.021664442
-0.017139049 -0.012115251 0.022591786
-0.012967606 -0.011707541 0.024299284
-0.0080810031 -0.012191948 0.024370465
-0.001819953 -0.010979964 0.024046352
0.0030638704 -0.011629744 0.024555866
0.0070914002 -0.011604051 0.024280917
0.013272783 -0.011812301 0.023052916
0.01791646 -0.012562906 0.022749756
0.022602312 -0.01297544 0.020865202
-0.016440347 -0.0089120995 0.02130188
-0.012704154 -0.0085477373 0.022110203
-0.0069382819 -0.0080868872 0.023093324
-0.0031068325 -0.0069820872 0.022124628
0.0027747459 -0.0080131683 0.023015022
0.0077364254 -0.0077921874 0.022384427
0.011960196 -0.0074608773 0.021591857
0.015655925 -0.0085854232 0.021486919
-0.0075660092 -0.0048864973 0.021725303
-0.0027694164 -0.0039636851 0.02091896
0.0019962301 -0.003390085 0.021537451
0.0082608406 -0.0038397952 0.020860681
0.012114911 -0.0048952904 0.020364847
-0.055531096 -0.058592688 0.025872111
-0.052970212 -0.058695666 0.028438438
-0.048069421 -0.058213014 0.02819041
0.053484038 -0.056358915 0.028357718
0.056979444 -0.056165881 0.026905209
-0.050559849 -0.053322963 0.02562313
-0.04713428 -0.052259091 0.027575573
-0.044502202 -0.052443754 0.028814545
0.048857871 -0.052315444 0.029442498
0.052724235 -0.053538892 0.028162129
0.056093115 -0.054643191 0.025933588
-0.046487708 -0.048527129 0.026464937
-0.042730164 -0.047279898 0.027444763
-0.038726311 -0.045641363 0.02981746
0.043410763 -0.045860276 0.029161882
0.048345022 -0.048590209 0.028093752
0.051110175 -0.049355745 0.025992641
-0.041642852 -0.042578928 0.026989216
-0.038705152 -0.041688398 0.027388802
-0.034699332 -0.040600326 0.029667171
0.039507158 -0.040402897 0.027994929
0.042113323 -0.042602401 0.028200328
0.045199182 -0.043571416 0.027456325
-0.040551677 -0.039393242 0.02618134
-0.037268925 -0.038656462 0.027746612
-0.032817904 -0.036905333 0.028972397
-0.029704435 -0.035392068 0.029718049
0.038005386 -0.036622424 0.027788758
0.041530188 -0.037866186 0.025422465
-0.036142539 -0.033435091 0.025666723
-0.031961657 -0.032499637 0.027223887
-0.02874185 -0.032928858 0.028717959
0.028874839 -0.031842988 0.029436182
0.032307263 -0.031547263 0.028570084
0.036398835 -0.032768127 0.02634922
-0.031677771 -0.028679362 0.025834668
-0.027553963 -0.027476177 0.027735598
-0.023043854 -0.027177386 0.028314004
-0.017852519 -0.0257122 0.029689841
0.023053294 -0.026370954 0.029746111
0.027588518 -0.028312081 0.028991228
0.03210539 -0.029336242 0.02635715
-0.025963482 -0.024687687 0.026970275
-0.021773359 -0.022633824 0.026941586
-0.017851165 -0.022625038 0.028243406
-0.013285297 -0.022324959 0.028987145
-0.0069644218 -0.021376781 0.029288426
0.0074197291 -0.020438988 0.029856397
0.012826699 -0.020739922 0.029066065
0.018051472 -0.021933688 0.028938252
0.021897748 -0.023041056 0.028585697
0.025750514 -0.023554387 0.027019098
-0.02088896 -0.019132271 0.026073679
-0.017522557 -0.017349364 0.02615837
-0.012391109 -0.017201954 0.027484925
-0.0077959523 -0.016929336 0.027596651
-0.0026059672 -0.016827857 0.028190088
0.0021987485 -0.016334753 0.028708922
0.0080160061 -0.017126936 0.028490445
0.012297308 -0.017717645 0.028622895
0.017554024 -0.018315308 0.026921621
0.021314787 -0.019975498 0.026914921
-0.015650593 -0.014380855 0.02538435
-0.012789676 -0.013593478 0.025958916
-0.0070231482 -0.012917079 0.0270292
-0.002181506 -0.012699004 0.026791291
0.0026909134 -0.01325721 0.02667141
0.0072339745 -0.012928504 0.026908357
0.011323483 -0.013295192 0.02607202
0.015547453 -0.013613726 0.025127118
-0.0013741386 -0.0091374852 0.025302924
0.002300346 -0.0090380609 0.025207007
-0.05116481 -0.058743007 0.031406704
-0.048303276 -0.058346089 0.033136867
-0.043250263 -0.058248166 0.033523951
0.04802927 -0.055962563 0.03197822
0.052808996 -0.056018066 0.032343984
-0.045854021 -0.05382283 0.031530917
-0.042905953 -0.05275625 0.033013914
-0.038732346 -0.052678321 0.034674119
0.044110999 -0.05247844 0.034336876
0.048188213 -0.053087573 0.032868013
0.051261611 -0.054457936 0.032216251
-0.041752808 -0.048091106 0.031654149
-0.038288668 -0.046478782 0.032860428
-0.033734888 -0.045952722 0.034159262
0.042582668 -0.047664572 0.032478616
0.046473943 -0.048972391 0.031251676
-0.04070846 -0.044945411 0.030411819
-0.036895622 -0.043004192 0.031826228
-0.032769326 -0.041951556 0.033107217
-0.028936747 -0.041343283 0.034364011
0.032505527 -0.041657217 0.034876958
0.037892353 -0.042644538 0.033103891
0.040675428 -0.042825337 0.031458285
-0.035958413 -0.038850628 0.030107126
-0.032264631 -0.038289327 0.031569853
-0.027404016 -0.037424717 0.032828297
-0.024050288 -0.036172554 0.033758897
0.02888247 -0.03774631 0.034136016
0.033200633 -0.036259968 0.031351298
0.036944747 -0.039341502 0.031147663
-0.03107029 -0.0342668 0.030531002
-0.026551591 -0.033926055 0.031354543
-0.023301346 -0.032114487 0.032010384
-0.017977843 -0.032007717 0.0337906
-0.012574391 -0.030516842 0.034512993
0.01477633 -0.030259317 0.034958545
0.018787924 -0.031004945 0.034075528
0.022022136 -0.031360865 0.033667658
0.028147671 -0.032401536 0.032018904
0.030659197 -0.032358538 0.030762589
-0.026481133 -0.029483324 0.030146135
-0.021384243 -0.027690932 0.031543944
-0.01802733 -0.027326629 0.032432113
-0.013307643 -0.026904682 0.032552261
-0.0078092949 -0.027337274 0.033904396
-0.0032866183 -0.026980132 0.033269804
0.0033449293 -0.026158962 0.033483673
0.0071582664 -0.026419329 0.033909705
0.014024456 -0.02680858 0.033513263
0.017471738 -0.027732534 0.033311281
0.021493781 -0.028169027 0.032130819
0.026522934 -0.02873699 0.030581575
-0.020464156 -0.024670828 0.030079484
-0.017119739 -0.023670185 0.031010335
-0.012433513 -0.022692477 0.031865306
-0.0074389805 -0.021297505 0.032500643
-0.0024608099 -0.022244411 0.033142928
0.0025227172 -0.022002531 0.033464499
0.0074748807 -0.023034388 0.033194989
0.01186113 -0.023146 0.031988963
0.017537555 -0.023872688 0.03100642
0.020523401 -0.023851367 0.030168852
-0.011088516 -0.018871641 0.030054897
-0.0053193914 -0.019351069 0.031576384
-0.0018402849 -0.01873293 0.03165362
0.0018000351 -0.018299032 0.031519987
0.0075758779 -0.018301871 0.030719683
0.011305417 -0.019654371 0.030827666
-0.046268821 -0.058369894 0.036594853
-0.043244228 -0.057753198 0.038247447
-0.037875831 -0.057949759 0.038168859
-0.03486082 -0.057724014 0.039759785
0.039027561 -0.055572074 0.039527748
0.042382184 -0.055887032 0.037575591
0.048410039 -0.056142412 0.037092905
0.050282083 -0.056365039 0.03536069
-0.040928058 -0.054266613 0.036522798
-0.037680198 -0.052778099 0.037318394
-0.033451542 -0.05165761 0.038734771
0.038828306 -0.053181078 0.039098486
0.042781342 -0.053210068 0.037622899
0.046982847 -0.054300625 0.036464266
-0.036601689 -0.048174806 0.036152046
-0.032232225 -0.04721925 0.03810649
-0.027049547 -0.046587903 0.038939565
-0.024340419 -0.045204602 0.039530303
0.03416431 -0.046403032 0.039576139
0.036980748 -0.046850707 0.03731836
0.040977821 -0.049065329 0.03545348
-0.031367321 -0.043525647 0.035963636
-0.027792381 -0.042664751 0.037391942
-0.023453156 -0.041697938 0.03829528
-0.017409012 -0.041074935 0.039897889
0.027631372 -0.041073121 0.038578946
0.032788821 -0.042613242 0.036846887
0.036324408 -0.043080166 0.035380997
-0.026542271 -0.038596496 0.036468793
-0.024093129 -0.037718844 0.036270119
-0.019094173 -0.037563633 0.037621267
-0.012912812 -0.036701739 0.038604204
-0.0071921446 -0.035634108 0.039343756
0.0001852877 -0.035080291 0.039790239
0.0096699074 -0.035482544 0.039627727
0.014495146 -0.035068277 0.038388945
0.017605646 -0.036101609 0.039409604
0.022196865 -0.037076171 0.038310912
0.026878316 -0.037109576 0.036667489
0.030322643 -0.037642103 0.035246145
-0.022492325 -0.034400802 0.03570722
-0.016894529 -0.032771505 0.036727432
-0.011961709 -0.032774791 0.037931368
-0.0077693989 -0.032156277 0.038644381
-0.0029490173 -0.032098185 0.038552426
0.0029388913 -0.031455904 0.039172258
0.0069377422 -0.031591658 0.038804036
0.01270519 -0.032192092 0.037862867
0.017554026 -0.033058021 0.037460219
0.021498267 -0.032661222 0.036141571
0.025047312 -0.034148034 0.035537988
-0.015128385 -0.029348446 0.035563681
-0.012476868 -0.028354896 0.035765845
-0.0070180693 -0.028777223 0.037342526
-0.0022264782 -0.027873164 0.037206408
0.0022822029 -0.028245142 0.037441093
0.0073133339 -0.027703071 0.036478676
0.012751673 -0.027353754 0.03562782
0.016201267 -0.028825643 0.035502557
0.0012650421 -0.02426712 0.035263907
0.0062914556 -0.024715977 0.035231955
-0.041597478 -0.058340501 0.040743519
-0.038010787 -0.058216259 0.043276694
-0.032795925 -0.057805106 0.041747909
-0.02798789 -0.057291884 0.044048849
0.029888295 -0.055211332 0.04494369
0.033219781 -0.055906806 0.043831259
0.037209053 -0.055924986 0.041692466
0.042353306 -0.056000423 0.042419538
0.04506772 -0.05657468 0.040119514
-0.035669718 -0.054344557 0.040834524
-0.032225873 -0.053119984 0.042013645
-0.02727584 -0.053238429 0.043944106
-0.023170084 -0.05147035 0.044004783
0.02929996 -0.052310735 0.044658452
0.032787509 -0.052711468 0.043528181
0.037375875 -0.053729076 0.042881265
0.042043243 -0.054579873 0.041635901
-0.031296819 -0.04928533 0.040657308
-0.027513666 -0.047351219 0.041591335
-0.022368787 -0.04803269 0.043117829
-0.018461538 -0.047963381 0.043994136
-0.012865489 -0.045622088 0.044186793
0.01758861 -0.046022743 0.044915702
0.022872144 -0.047708422 0.044312373
0.027265644 -0.047819439 0.043395326
0.032489773 -0.048451837 0.041576289
0.036324918 -0.048882503 0.040012352
-0.025338154 -0.044010717 0.040732786
-0.021708742 -0.042786852 0.041605789
-0.016994935 -0.042525917 0.042876605
-0.013567676 -0.042217556 0.043840785
-0.008164905 -0.041597314 0.043565795
-0.0015286173 -0.041718856 0.044005383
0.0021372521 -0.041828945 0.04433357
0.0076963212 -0.041529309 0.044080101
0.013399811 -0.042365681 0.043652333
0.01695488 -0.041763589 0.043169349
0.022935411 -0.042328052 0.042084828
0.026043443 -0.043027453 0.041408688
0.031039182 -0.044785839 0.040320151
-0.015940497 -0.038552497 0.041183233
-0.012004332 -0.037555162 0.041730728
-0.0075658234 -0.036659718 0.042037297
-0.0025272609 -0.037043419 0.042663407
0.0024869868 -0.037195981 0.042801149
0.007220251 -0.038064159 0.042416386
0.013027533 -0.036915164 0.04160564
0.016779872 -0.03737203 0.040971812
0.021621373 -0.039171819 0.040760316
-0.010608166 -0.034433652 0.040165495
-0.0075095762 -0.034442943 0.040835932
-0.0024125793 -0.033679411 0.041035447
0.0031321326 -0.033264805 0.040897023
0.0064735869 -0.033044532 0.040546652
0.012166873 -0.034553532 0.04061358
