# .PCD v0.7 - Point Cloud Data file format
VERSION 0.7
FIELDS x y z
SIZE 4 4 4
TYPE F F F
COUNT 1 1 1
WIDTH 1266
HEIGHT 1
VIEWPOINT 0 0 0 1 0 0 0
POINTS 1266
DATA ascii
-0.016472545 -0.031674795 -0.030382186
-0.013327491 -0.031933587 -0.030406525
-0.0070359348 -0.03137555 -0.030351896
-0.0037339074 -0.034875229 -0.030327436
-0.027593672 -0.028789103 -0.030064851
-0.022763366 -0.028090686 -0.030206481
-0.017732454 -0.027951151 -0.030256147
-0.013021834 -0.027892787 -0.030294318
-0.0099205943 -0.027716726 -0.030263966
-0.0039888094 -0.027144607 -0.03015935
-0.026116407 -0.023709429 -0.030091196
-0.022284422 -0.022788599 -0.030105047
-0.016906699 -0.021820292 -0.030116133
-0.012266043 -0.021429926 -0.030111501
-0.0041179927 -0.023285892 -0.030088704
-0.01105473 -0.019989146 -0.030081259
-0.0088842716 -0.019717021 -0.03006267
-0.030069169 0.027212599 -0.030019235
-0.027193218 0.027502408 -0.030059319
-0.025803732 0.031815067 -0.030020908
-0.022732601 0.07473547 -0.030000184
-0.027929148 0.078677572 -0.030071646
-0.022332069 0.078297637 -0.030151935
-0.01817864 0.076771103 -0.030072764
-0.0130537 0.078303993 -0.030121174
-0.0070225345 0.078796081 -0.030099085
-0.0024972097 0.079453282 -0.030079201
0.00065443903 0.079772808 -0.03000265
-0.03139098 0.084159069 -0.03014316
-0.027390128 0.082175545 -0.030245164
-0.022380829 0.082611695 -0.030376935
-0.017961042 0.082216538 -0.030360501
-0.013344891 0.083024517 -0.030388346
-0.00714307 0.082980826 -0.030329755
-0.0022173044 0.084252454 -0.030305604
0.0029357758 0.082485273 -0.03008928
0.0057513174 0.083325811 -0.03004379
-0.0316802 0.087821461 -0.030256204
-0.027939251 0.087817371 -0.030488923
-0.021710329 0.086899221 -0.0305994
-0.018064599 0.087048426 -0.030614074
-0.01239948 0.087604135 -0.030614251
-0.0075990171 0.088824712 -0.030567164
-0.0021813216 0.088036358 -0.030433038
0.0021929594 0.085997738 -0.030266501
0.0087343352 0.08754357 -0.030078292
0.010350746 0.089120641 -0.030031022
-0.035320852 0.092628598 -0.030060565
-0.032521226 0.093331032 -0.030357331
-0.026786836 0.093829423 -0.030767191
-0.023247076 0.091370523 -0.030777749
-0.017575996 0.092898168 -0.030845759
-0.013354956 0.09366823 -0.030825561
-0.0054649431 0.090453446 -0.030568622
-0.0026721021 0.092993543 -0.030572191
0.0031382989 0.092616059 -0.030403882
0.0078560049 0.092017859 -0.030214578
0.011213548 0.093890898 -0.030057726
-0.032052327 0.098565288 -0.030400064
-0.027869588 0.097318724 -0.030742098
-0.022084059 0.098209366 -0.030954158
-0.018491132 0.098040722 -0.03098795
-0.012113461 0.097857662 -0.031004239
-0.0076619955 0.098856576 -0.030980248
-0.0026931334 0.097858705 -0.030835139
0.0022710238 0.09729737 -0.03063122
0.0070436159 0.096862912 -0.030331532
0.010961132 0.095823869 -0.030133452
-0.035406224 0.10203147 -0.030003851
-0.032797948 0.1027533 -0.030274587
-0.027092692 0.10323852 -0.030608237
-0.022518085 0.10227025 -0.030908223
-0.017664511 0.10187186 -0.030973351
-0.012853013 0.10188346 -0.030817261
-0.0077988487 0.1012715 -0.030711275
-0.0034320608 0.10164062 -0.030411744
0.00092443213 0.10074559 -0.030309401
-0.034538809 0.10504302 -0.030005438
-0.028356435 0.10519464 -0.030137964
-0.0027367296 -0.070094503 -0.025392855
0.0027632315 -0.072048515 -0.025509564
0.0066707451 -0.073087469 -0.025527924
0.012312266 -0.073016122 -0.025670417
0.017546399 -0.072061375 -0.02566831
0.02243671 -0.071618877 -0.025284549
-0.0082357153 -0.066361338 -0.025948606
-0.0034571919 -0.067623839 -0.026475858
0.0024485078 -0.067819707 -0.027220102
0.0079941377 -0.067646384 -0.027560055
0.012305177 -0.067048639 -0.027735215
0.017656827 -0.067165382 -0.027431658
0.023347156 -0.066581726 -0.027254598
0.027739232 -0.066628218 -0.026851721
0.032749664 -0.066917501 -0.026226213
0.036211491 -0.067018852 -0.02542147
-0.017964095 -0.061107721 -0.026084492
-0.012666446 -0.062733859 -0.026740378
-0.0081616808 -0.062756397 -0.027827008
-0.0025028377 -0.061908256 -0.028994335
0.0027620625 -0.062565215 -0.029112909
0.0075148214 -0.061949424 -0.029370543
0.012472008 -0.061988957 -0.029253274
0.017731737 -0.062748089 -0.028737653
0.023019833 -0.063378938 -0.028123392
0.026912188 -0.063683711 -0.027572664
0.033336606 -0.062542155 -0.026382204
0.036284979 -0.061481975 -0.025516439
-0.028865222 -0.055180129 -0.026452689
-0.021201696 -0.057139806 -0.027603325
-0.016588915 -0.057022758 -0.028950218
-0.012927537 -0.057693284 -0.029343273
-0.0070370389 -0.059168987 -0.029603224
-0.0035949904 -0.059209842 -0.029887557
0.0028034355 -0.059957925 -0.029928021
0.0079562543 -0.057906281 -0.029850477
0.012419231 -0.057751518 -0.02945964
0.017684625 -0.058296725 -0.028831989
0.023590503 -0.055700731 -0.027858799
0.0277854 -0.057163849 -0.027231596
0.033853266 -0.056130335 -0.025953708
0.035813775 -0.057564165 -0.025374714
-0.041159313 -0.050825804 -0.025472606
-0.036749586 -0.050958157 -0.026989819
-0.032887831 -0.051461913 -0.027789589
-0.027798142 -0.051930662 -0.028928405
-0.020872021 -0.053573359 -0.029820621
0.0073182844 -0.0510481 -0.02988188
0.012694601 -0.051518075 -0.029398357
0.016041303 -0.052296877 -0.028972438
0.021314407 -0.05332274 -0.028155483
0.028710676 -0.051615357 -0.026858255
0.032454796 -0.052807026 -0.025981953
-0.050223548 -0.045483273 -0.025310595
-0.04771179 -0.046717856 -0.025972478
-0.04279032 -0.048251238 -0.02669814
-0.038220063 -0.04855141 -0.027927639
-0.032721452 -0.048101641 -0.029011872
-0.029173305 -0.048368257 -0.029509427
0.012014065 -0.046245418 -0.029506957
0.017255655 -0.047068458 -0.02876663
0.023218518 -0.047068696 -0.027628303
0.029120911 -0.047170557 -0.026567815
0.030880103 -0.048263919 -0.026011921
-0.050557617 -0.04358945 -0.025477601
-0.048538711 -0.043375954 -0.026478071
-0.041778583 -0.043625493 -0.027776081
-0.037941027 -0.042096753 -0.028568882
-0.032202672 -0.041988414 -0.029495699
-0.028653365 -0.041555997 -0.029918345
0.0079364022 -0.042162802 -0.029831881
0.01208564 -0.042361259 -0.029361507
0.01797645 -0.042490263 -0.028490584
0.021741852 -0.041966643 -0.027798619
0.028772034 -0.042536475 -0.026466681
0.030603383 -0.042309064 -0.025787119
-0.050524235 -0.03706459 -0.025681963
-0.048711024 -0.037593737 -0.026612105
-0.042280838 -0.037686974 -0.027951136
-0.037166458 -0.037430178 -0.028934263
-0.032043055 -0.036859795 -0.029731385
-0.029900234 -0.038983539 -0.029945623
0.0075721126 -0.03846636 -0.029743733
0.011414381 -0.037989669 -0.029316846
0.017425034 -0.03813716 -0.028453972
0.022062344 -0.037858613 -0.027676305
0.027848741 -0.037467793 -0.026615659
0.031198462 -0.037720691 -0.025746703
-0.050435044 -0.032487437 -0.025840139
-0.049326677 -0.033462644 -0.026532501
-0.042313781 -0.032028425 -0.028093381
-0.036858078 -0.03270559 -0.029153924
-0.033015087 -0.032386012 -0.029660573
-0.02950668 -0.03050144 -0.029973105
0.0027902101 -0.032380607 -0.02995491
0.0096339658 -0.031640906 -0.029367751
0.012723745 -0.032551806 -0.029006734
0.018198058 -0.031659286 -0.028244313
0.022422962 -0.031650975 -0.027586229
0.028065236 -0.032445367 -0.026572188
0.032091908 -0.033077724 -0.025743941
-0.050561316 -0.027795205 -0.025716105
-0.048743092 -0.028245106 -0.026696509
-0.042506453 -0.027270013 -0.0281434
-0.036525935 -0.028105697 -0.029232129
-0.0323027 -0.028206546 -0.029713564
-0.028793231 -0.026192019 -0.029985003
0.0027577383 -0.027564397 -0.029866137
0.0084389364 -0.027288482 -0.029423611
0.01274638 -0.02677656 -0.028969761
0.017539803 -0.027964119 -0.028335048
0.021916261 -0.027710497 -0.027686154
0.027747504 -0.027204206 -0.026705362
0.033750743 -0.027968951 -0.025588982
0.035453081 -0.02617182 -0.025204537
-0.050678048 -0.02271655 -0.025652232
-0.048274972 -0.022805836 -0.026857235
-0.042741731 -0.022106893 -0.028133031
-0.03692051 -0.022648204 -0.029173816
-0.033387911 -0.022279691 -0.029572256
-0.028793447 -0.022308312 -0.02999118
0.0019657204 -0.023678418 -0.029857408
0.0074510928 -0.022922263 -0.029485732
0.013478103 -0.023083093 -0.02887159
0.017739909 -0.022468029 -0.028322255
0.021877525 -0.023259768 -0.027724365
0.02594254 -0.022184687 -0.027105752
0.033005059 -0.022080505 -0.025896579
0.03623249 -0.022287685 -0.025292777
-0.050657958 -0.018237332 -0.025668403
-0.04869549 -0.018248094 -0.026799122
-0.042214938 -0.0174651 -0.028221572
-0.036780015 -0.018530255 -0.0291669
-0.032279987 -0.018539671 -0.029631369
-0.028476341 -0.018178476 -0.029885983
-0.023146264 -0.017647862 -0.02998291
-0.014554565 -0.016671736 -0.029991293
-0.0075314953 -0.015651377 -0.029966351
-0.0033016179 -0.019359557 -0.029988473
0.0025218152 -0.017116392 -0.029729825
0.0074032033 -0.018440064 -0.029446846
0.013228445 -0.017769085 -0.028866246
0.018084416 -0.018254779 -0.0282728
0.023272285 -0.018488832 -0.027542988
0.02679188 -0.01837723 -0.027006872
0.032320101 -0.016396882 -0.026091119
0.036894172 -0.017812187 -0.025269136
-0.050724912 -0.01317481 -0.02565871
-0.048753574 -0.012233834 -0.026809659
-0.042312719 -0.0133829 -0.028249754
-0.037398435 -0.012943382 -0.029032659
-0.031677745 -0.013077516 -0.029557791
-0.027695017 -0.012883354 -0.029733967
-0.022826687 -0.012972511 -0.029842466
-0.018392386 -0.011741381 -0.029836809
-0.012237216 -0.012634229 -0.029889667
-0.0078321677 -0.011865405 -0.029874245
-0.0025988021 -0.011572169 -0.029782075
0.0033737498 -0.011568075 -0.029543491
0.007868533 -0.01321858 -0.029299041
0.012856014 -0.013022408 -0.028830396
0.017594496 -0.012811594 -0.028309222
0.022057736 -0.012276632 -0.027734734
0.027463237 -0.012776237 -0.026948819
0.031880166 -0.013735925 -0.026209906
0.037242059 -0.011637247 -0.025234928
-0.050717212 -0.0076166876 -0.02564922
-0.04834893 -0.0071066045 -0.026913557
-0.042692784 -0.0066165477 -0.028169263
-0.037763815 -0.0072696768 -0.028962269
-0.033130366 -0.0073473346 -0.029339539
-0.02818067 -0.0066645835 -0.029501539
-0.022543127 -0.0070565534 -0.029618829
-0.018628491 -0.0063650017 -0.029644173
-0.013574271 -0.0073035951 -0.029728467
-0.0048400899 -0.0075174747 -0.029711764
0.0041850372 -0.0078642564 -0.029386317
0.013245966 -0.0081197154 -0.028701508
0.017618326 -0.0052102515 -0.028246213
0.022259587 -0.0068173241 -0.027709156
0.028430335 -0.0068839863 -0.026839158
0.032399978 -0.008035521 -0.026190206
0.037080482 -0.0068493872 -0.02530884
-0.050571639 -0.0024595559 -0.025782427
-0.048088584 -0.0026866128 -0.02701753
-0.042818144 -0.0029028091 -0.028185163
-0.037698526 -0.0012453075 -0.02899701
-0.032602627 -0.0012564454 -0.029278811
-0.027046144 -0.0028606467 -0.029390451
-0.023342859 -0.0014660638 -0.029353306
-0.017266789 -0.0020221164 -0.029461885
-0.010669821 -0.0039523342 -0.029634709
-0.0069583161 -0.0034613062 -0.0295911
-0.0033016489 -0.0029741807 -0.029519124
0.00081063109 -0.0038218428 -0.029422738
0.0065426631 -0.0031336462 -0.029089805
0.014253778 -0.0031189909 -0.028545624
0.018853789 -0.0010007337 -0.028110882
0.022349669 -0.0027235814 -0.027719127
0.02781745 -0.0036612907 -0.026955348
0.032329749 -0.0019077017 -0.026276851
0.037505951 -0.0016648833 -0.025322737
-0.050584868 0.0031243588 -0.025698781
-0.048476614 0.0027363321 -0.026928434
-0.042904422 0.0020459625 -0.028232092
-0.038097411 0.001801581 -0.02900672
-0.031409185 0.0029458478 -0.029295297
-0.027197929 5.6675137e-05 -0.029287534
-0.023409257 0.00064774853 -0.02925591
-0.016974621 0.0022336335 -0.029277137
-0.012101711 0.0026891453 -0.029338056
-0.007804492 0.0020428828 -0.029395027
-0.0019416059 0.0033003727 -0.029300652
0.0017243592 0.0028850231 -0.029208243
0.0069412468 0.0019357755 -0.028992178
0.011446367 0.0025616337 -0.028727572
0.016574934 0.0024411993 -0.028344663
0.022248108 0.0026397416 -0.027772442
0.028262502 0.0019993279 -0.02698716
0.033031341 0.0027355391 -0.026288269
0.037512768 0.0021355315 -0.025448043
-0.050499093 0.0076631526 -0.025733847
-0.04886049 0.0073987427 -0.026828455
-0.041663811 0.0069032535 -0.028569588
-0.036851943 0.0073385737 -0.029212538
-0.033666674 0.0066138208 -0.029349077
-0.027344383 0.0065298751 -0.029336873
-0.021947499 0.0060376329 -0.029197924
-0.017845158 0.0073883981 -0.029164854
-0.012076688 0.0078317458 -0.029257599
-0.0060330164 0.0089711994 -0.029292695
-0.0025642598 0.0081656277 -0.029252738
0.0018862275 0.0079850433 -0.029176353
0.0077624433 0.0066634826 -0.028941443
0.01081874 0.0094823837 -0.02882297
0.018893529 0.008636808 -0.028245376
0.02186952 0.0064178663 -0.027886502
0.027081132 0.0074487766 -0.027324971
0.032985121 0.0067889374 -0.026446698
0.03799637 0.0074304603 -0.02558201
0.040533949 0.0086730039 -0.025089167
-0.050512522 0.011927593 -0.025830278
-0.049065381 0.01222694 -0.026805222
-0.043440096 0.011761071 -0.02822404
-0.035672776 0.014400833 -0.029522836
-0.032914985 0.01340557 -0.029625865
-0.027563581 0.011848627 -0.029529009
-0.02346899 0.013266722 -0.029465865
-0.018406315 0.01365322 -0.029352406
-0.012164449 0.012930805 -0.029291585
-0.0081626587 0.013218711 -0.029317735
-0.0024452505 0.012552084 -0.029274343
0.0023144395 0.011934875 -0.029173376
0.0070441328 0.011969029 -0.029016538
0.012550261 0.012561362 -0.02876468
0.018735677 0.012136292 -0.028317677
0.02197849 0.013366031 -0.028049033
0.02807718 0.010833101 -0.027308196
0.032438312 0.012901413 -0.026748803
0.037842926 0.011794501 -0.025781551
0.041170735 0.013778536 -0.025185972
-0.050493781 0.017646097 -0.02589014
-0.049157754 0.017417107 -0.026718646
-0.041586023 0.018513009 -0.028537979
-0.038823962 0.015875429 -0.029164279
-0.024698082 0.019925835 -0.029787024
-0.017584562 0.019684279 -0.029521191
-0.013690471 0.019552456 -0.02947077
-0.0078448001 0.018814337 -0.029410791
-0.0021008432 0.017687213 -0.029314283
0.0015289496 0.016441721 -0.029217608
0.0059173852 0.016479993 -0.029085651
0.012667865 0.016465846 -0.028782917
0.016134467 0.017934738 -0.028590191
0.024884501 0.016972575 -0.027834913
0.033181328 0.01632843 -0.026729159
0.036432743 0.017789569 -0.026219837
0.041446567 0.017448401 -0.025209224
-0.050571334 0.02265485 -0.025825119
-0.048691034 0.022195611 -0.026904562
-0.043181613 0.022782577 -0.028180914
-0.03709751 0.022661248 -0.029364085
-0.032261185 0.022180848 -0.029865531
-0.028992862 0.020211847 -0.029951548
-0.024579436 0.02026036 -0.029797718
-0.016336141 0.023207515 -0.029608795
-0.0073071877 0.023778202 -0.029477352
-0.0035228736 0.023535427 -0.029398357
0.0019538752 0.021259837 -0.029244356
0.0098977461 0.022599194 -0.028946493
0.018833974 0.021289317 -0.028421346
0.020649949 0.023501527 -0.02830166
0.027529411 0.02257709 -0.027612511
0.031798635 0.024189988 -0.027109435
0.037930321 0.02218936 -0.026077613
0.041968524 0.023436712 -0.025306318
-0.05058527 0.027911613 -0.025908489
-0.048650317 0.027671682 -0.026972331
-0.041425418 0.027675034 -0.028622299
-0.037020128 0.027451435 -0.029421445
-0.033332553 0.027749971 -0.029827824
-0.022440193 0.026577504 -0.029887525
-0.016954103 0.026090164 -0.029696066
-0.011975556 0.02556836 -0.02957874
-0.0092556151 0.02517348 -0.029528303
-0.0014206038 0.029210042 -0.029365171
0.0029035993 0.026538357 -0.02920524
0.0091362614 0.028491471 -0.029000591
0.012481672 0.026006084 -0.028827874
0.015190591 0.029569954 -0.028703213
0.022969849 0.028204381 -0.028135099
0.026262445 0.029614657 -0.02781792
0.033691447 0.026094984 -0.026844187
0.03747315 0.02772277 -0.026259935
0.041654456 0.027361279 -0.025430698
-0.050458856 0.03188432 -0.026077975
-0.048223872 0.032348227 -0.027131626
-0.0430848 0.033123929 -0.028302455
-0.037326075 0.031801835 -0.029368861
-0.032128464 0.031578001 -0.029875142
-0.022690695 0.032220457 -0.029933304
-0.019776823 0.032045443 -0.029838081
-0.012713714 0.031439669 -0.029678874
-0.0065465425 0.03102733 -0.029539049
-0.0038624527 0.030375818 -0.029458562
0.0025972952 0.033725914 -0.029224239
0.0058901422 0.031036688 -0.029119059
0.01199069 0.032378174 -0.028867831
0.018211666 0.033123299 -0.028526288
0.029083131 0.032446001 -0.027517792
0.030931225 0.034300976 -0.027321147
0.038528018 0.031806726 -0.026116319
0.042625751 0.031477943 -0.02527668
-0.050536048 0.037870917 -0.025984138
-0.048739485 0.037667368 -0.027034948
-0.043205835 0.036855038 -0.028302096
-0.037643626 0.037982445 -0.029277945
-0.032513026 0.037885919 -0.029788068
-0.028395046 0.037721332 -0.029950351
-0.021939892 0.037693523 -0.029916985
-0.017700044 0.036929708 -0.029806474
-0.0075602969 0.03690853 -0.029587053
-0.001308348 0.0365256 -0.02939092
0.00062750274 0.036510769 -0.029312139
0.0082691712 0.03689329 -0.029037287
0.011688867 0.038802098 -0.028879097
0.016775683 0.037800699 -0.028605103
0.02284429 0.037649438 -0.028161427
0.033978555 0.037258241 -0.02691488
0.037245471 0.037843116 -0.026394479
0.042204704 0.038106292 -0.025437815
-0.050576091 0.043006308 -0.02601961
-0.048824169 0.043366894 -0.027065448
-0.042815551 0.042585995 -0.02845291
-0.038040124 0.043221496 -0.029301208
-0.031799749 0.043721318 -0.029832346
-0.026874112 0.041741639 -0.029937316
-0.02149537 0.042563587 -0.029897481
-0.014979296 0.04294204 -0.029729851
-0.0077046924 0.04127796 -0.029594585
-0.0020092549 0.042321268 -0.029447736
0.0030532996 0.042199165 -0.029264715
0.0072376817 0.04329671 -0.029098975
0.014100675 0.041285083 -0.028750617
0.017010503 0.043866731 -0.028582767
0.028946051 0.043287661 -0.027564824
0.033963025 0.042550631 -0.026938559
0.038047288 0.042226646 -0.026296787
0.041994534 0.042385973 -0.025539625
-0.050631847 0.047726724 -0.025876127
-0.048375804 0.047449153 -0.027176948
-0.042292032 0.047484942 -0.028595312
-0.037071176 0.047561388 -0.029479668
-0.033260003 0.048030172 -0.029799458
-0.027547896 0.04743449 -0.029906798
-0.02318687 0.048119072 -0.029856766
-0.017430745 0.048458673 -0.029738966
-0.012528187 0.048339933 -0.029659949
-0.007016629 0.046707593 -0.029571965
-0.0022913357 0.046511382 -0.029442055
0.0031411818 0.046920892 -0.029277401
0.0075197779 0.048240244 -0.02911308
0.011796267 0.047194004 -0.028883107
0.019933278 0.046300169 -0.0283772
0.023934802 0.04951911 -0.028069636
0.029443307 0.048903186 -0.027567372
0.031861272 0.04678024 -0.02725886
0.037658978 0.047503985 -0.026435925
0.042280763 0.048025038 -0.025550142
-0.050565433 0.052687015 -0.025952479
-0.048920058 0.052800652 -0.02700714
-0.041950118 0.052218385 -0.028611438
-0.03788422 0.053104118 -0.029398678
-0.03216422 0.053056575 -0.029819516
-0.02772948 0.05200981 -0.029874774
-0.022904659 0.053295553 -0.029807186
-0.018425912 0.053763464 -0.029723093
-0.010030858 0.053657036 -0.029608136
-0.0021211181 0.052543327 -0.029442534
0.0028520278 0.051699452 -0.029299133
0.0078044478 0.051761746 -0.029105594
0.011771541 0.052133366 -0.028892705
0.016489446 0.052820761 -0.028627455
0.023178888 0.054175332 -0.028152067
0.028317792 0.052698061 -0.027688917
0.033218663 0.05303422 -0.02712444
0.039001923 0.051522475 -0.026246453
0.041120503 0.051363356 -0.025848297
-0.050550312 0.057024129 -0.02604479
-0.049089849 0.057731777 -0.027036414
-0.043209851 0.057041075 -0.028338579
-0.038006362 0.056790266 -0.029387236
-0.033081457 0.057456248 -0.029744353
-0.0271325 0.057590328 -0.02983583
-0.022281069 0.058676429 -0.029781193
-0.017870802 0.058272466 -0.029695764
-0.012954251 0.059154354 -0.029628476
-0.0075439462 0.058951408 -0.029556595
0.00066156074 0.058424864 -0.029378239
0.0079280324 0.058206871 -0.029087249
0.011632761 0.058185399 -0.028875042
0.016175101 0.05694291 -0.028642021
0.021613376 0.058025077 -0.028254472
0.026055191 0.057355016 -0.027906146
0.032846127 0.05808121 -0.027164152
0.038001783 0.05613688 -0.026433036
0.041933913 0.056008015 -0.02570658
-0.050647449 0.061506629 -0.025954261
-0.049064361 0.061659265 -0.027018471
-0.043624494 0.06414444 -0.028275292
-0.037071679 0.061882578 -0.029390031
-0.032235291 0.062388521 -0.029725144
-0.027814347 0.062155217 -0.029822147
-0.021801973 0.063815005 -0.029777393
-0.018495496 0.064428717 -0.029725473
-0.013127496 0.063131362 -0.029642742
-0.0070481189 0.063834041 -0.029573539
-0.0049130023 0.06417568 -0.029553192
0.0029435919 0.06317544 -0.029324533
0.0086801965 0.063386761 -0.029043455
0.012483316 0.063514829 -0.028842846
0.017118201 0.062954187 -0.028581355
0.023731703 0.062382042 -0.02806885
0.026694685 0.061416864 -0.027820384
0.032849941 0.061679631 -0.027121745
0.038229108 0.062757395 -0.026374033
0.042886499 0.063121498 -0.025512759
-0.050744046 0.068018652 -0.025892252
-0.048747633 0.06887383 -0.027163194
-0.04015271 0.06874083 -0.028902417
-0.038107764 0.066787653 -0.029206641
-0.033381112 0.06717369 -0.029615929
-0.027171018 0.067122512 -0.029838942
-0.022752481 0.068326108 -0.029841881
-0.018073294 0.068953745 -0.029785722
-0.011536085 0.069126792 -0.029731996
-0.0068512075 0.068589702 -0.029670468
-0.0026062343 0.06899301 -0.029602177
0.0034897474 0.066911764 -0.029352611
0.0063740928 0.068385743 -0.029273275
0.013164083 0.067985542 -0.028881902
0.017872388 0.068205088 -0.02858601
0.021919295 0.067861505 -0.02824524
0.027583336 0.067997538 -0.027689202
0.032228071 0.068060942 -0.027188873
0.037362833 0.067001909 -0.026519651
0.043081623 0.066990048 -0.025513636
0.045241337 0.068236262 -0.025003282
-0.050663624 0.072641827 -0.026043059
-0.047593694 0.072203226 -0.027409894
-0.041149538 0.072024405 -0.028683018
-0.036788404 0.073470183 -0.02937251
-0.032210805 0.072055653 -0.029722894
-0.027682321 0.07202471 -0.029915396
-0.021923244 0.071770258 -0.029911976
-0.018178968 0.07147114 -0.029864265
-0.012130796 0.071048573 -0.029798878
-0.0075236149 0.073605269 -0.029847942
-0.0035372335 0.071511105 -0.02971066
0.0029394545 0.072334468 -0.029541373
0.0072212135 0.074363366 -0.029464928
0.013235535 0.072993897 -0.029067222
0.016452737 0.073331274 -0.028864281
0.021782024 0.071365744 -0.028328476
0.027790634 0.073048159 -0.027757837
0.033796843 0.073386744 -0.027076645
0.037733257 0.073050104 -0.026539691
0.042736977 0.072174646 -0.025669513
-0.050660424 0.077247895 -0.026031932
-0.048585605 0.07692121 -0.027280077
-0.040965758 0.077901661 -0.028802343
-0.036799781 0.077539556 -0.029422995
-0.032215349 0.07706257 -0.029822798
-0.028976744 0.076300725 -0.029971009
-0.015121536 0.075068474 -0.029970311
-0.0090976544 0.075951003 -0.029967345
-0.002545971 0.076601237 -0.029911095
0.0034477662 0.078203544 -0.029822215
0.0081108492 0.079436831 -0.029707735
0.012488658 0.077171408 -0.029317563
0.017353533 0.07757441 -0.028962988
0.02148849 0.076993138 -0.028552702
0.027628809 0.077397577 -0.027925624
0.032087307 0.077804551 -0.027432196
0.038413975 0.078502722 -0.026602803
0.041903004 0.079315513 -0.026012877
-0.050673939 0.081333429 -0.02600787
-0.048349429 0.082696147 -0.02741945
-0.043386769 0.083768621 -0.028448341
-0.038407724 0.082843542 -0.029343983
-0.032451183 0.081308812 -0.029944852
0.0088976165 0.08150328 -0.029796772
0.012655973 0.082879014 -0.029641455
0.017973373 0.08286979 -0.029224023
0.021152379 0.081566863 -0.028830811
0.028694516 0.081876948 -0.028019948
0.032321621 0.082171842 -0.027597446
0.037578408 0.082880631 -0.02687924
0.043435268 0.084553212 -0.02574753
0.045406695 0.080613285 -0.025214471
-0.050717376 0.086973771 -0.025997605
-0.049253855 0.087636217 -0.027208483
-0.042459857 0.088652141 -0.028723961
-0.037218988 0.08774744 -0.029690664
-0.034389447 0.086089283 -0.029969217
0.0098789483 0.086155318 -0.029984258
0.012110548 0.086882502 -0.029866327
0.017287541 0.086854272 -0.029435506
0.022128059 0.086840346 -0.02893425
0.027353767 0.08721444 -0.02831134
0.033080198 0.087492898 -0.027537555
0.037631884 0.088317052 -0.026825283
0.042216111 0.08885742 -0.025972096
0.045812003 0.088121347 -0.025179051
-0.050579831 0.092911966 -0.02632124
-0.049207624 0.092899114 -0.027260702
-0.043639999 0.092049897 -0.02852999
-0.039374441 0.092819639 -0.029424094
0.013251943 0.092119105 -0.029848352
0.017814411 0.093539692 -0.029472731
0.022402845 0.093103498 -0.028910803
0.027921807 0.093180604 -0.028045679
0.032593518 0.092861809 -0.027243506
0.037583105 0.091343507 -0.026675913
0.042131778 0.090883948 -0.025792399
0.045347422 0.090505332 -0.025078556
-0.050378472 0.097042501 -0.026600316
-0.048221372 0.096898198 -0.027557638
-0.042207167 0.098076433 -0.028863858
-0.037618674 0.09785977 -0.02967488
0.0088777784 0.098895401 -0.029837182
0.013080698 0.096092343 -0.02984111
0.016525323 0.09633708 -0.029362826
0.02155323 0.097024173 -0.028440505
0.027539363 0.098804675 -0.026881924
0.032115061 0.098382384 -0.026027905
0.037177086 0.095928483 -0.025543546
-0.050579581 0.10133424 -0.026502047
-0.048284367 0.10244639 -0.027681775
-0.04223964 0.10334449 -0.029012626
-0.037842087 0.10376815 -0.029682994
-0.0013029027 0.10387234 -0.029815931
0.0036558707 0.1038565 -0.029359639
0.0082833981 0.10297147 -0.029034957
0.011892946 0.10245731 -0.028691405
0.017660657 0.10241383 -0.02786042
0.023323011 0.10262255 -0.026847068
0.027487451 0.10226546 -0.026075073
0.031366963 0.10107204 -0.025517253
-0.050661776 0.10811346 -0.026156023
-0.048059329 0.10772039 -0.027496964
-0.04233608 0.10654431 -0.028745821
-0.038284458 0.10616855 -0.029285483
-0.031923797 0.10767637 -0.028692998
-0.028062019 0.10670622 -0.029368971
-0.022232695 0.10807641 -0.028762421
-0.017831003 0.10823131 -0.028758494
-0.012686365 0.10775438 -0.028933883
-0.0076308819 0.10776515 -0.02889099
-0.0029516276 0.10800914 -0.028576892
0.0021364705 0.10817628 -0.028122641
0.0076607997 0.10831575 -0.027480919
0.01127487 0.10808414 -0.02711238
0.017359864 0.10809518 -0.026187569
0.023341771 0.10718372 -0.025549768
0.026246861 0.10599232 -0.02538475
-0.047953501 0.11068927 -0.025554597
-0.042195734 0.11120121 -0.025719197
-0.037709136 0.11167871 -0.025626155
-0.032393984 0.11169866 -0.025957605
-0.027163098 0.11192437 -0.026066108
-0.022190919 0.11200129 -0.026168318
-0.017421838 0.11186055 -0.026378455
-0.012431142 0.1117786 -0.026377229
-0.0072569018 0.11182238 -0.026114281
-0.0023715289 0.11179283 -0.025972117
0.0022761887 0.11166678 -0.025850976
0.0073339916 0.11145826 -0.025679844
0.011033474 0.11118122 -0.025533171
0.015145889 0.11056192 -0.025436696
0.013601087 -0.10642482 -0.020054655
0.013523701 -0.10130757 -0.020234887
0.0095602665 -0.096356556 -0.020158645
0.013654544 -0.096656308 -0.020400696
0.016646482 -0.095903128 -0.020324018
0.0080478992 -0.088413663 -0.020437721
0.012790898 -0.088422738 -0.021061232
0.0170552 -0.088375188 -0.02088977
0.020807644 -0.087756775 -0.020214658
0.003428475 -0.081874937 -0.020587187
0.0067485715 -0.082331643 -0.021486074
0.013147061 -0.082292043 -0.022298796
0.017733736 -0.082012504 -0.022036621
0.021994531 -0.082156852 -0.020893555
-0.0065082526 -0.075830817 -0.020046392
-0.0017129706 -0.077368923 -0.021206262
0.0028464023 -0.076855175 -0.023104377
0.0068145357 -0.077493384 -0.023614435
0.013400385 -0.077601947 -0.023927379
0.017933154 -0.077296637 -0.023627656
0.02150891 -0.077273943 -0.023006426
0.027770704 -0.077402808 -0.021359507
0.031669032 -0.076758362 -0.020432368
-0.012734835 -0.071051322 -0.0207534
-0.0082723284 -0.073058315 -0.021403622
-0.0024501397 -0.073042214 -0.023715308
0.0013318828 -0.073923849 -0.024341729
0.012788776 -0.074964471 -0.024950968
0.018051209 -0.074261017 -0.024778629
0.022020148 -0.074332282 -0.024192058
0.027034827 -0.072636791 -0.024147579
0.032074876 -0.072948031 -0.023005446
0.037461672 -0.072649397 -0.021434685
0.041524291 -0.071451627 -0.020776827
-0.020975683 -0.06649781 -0.02023109
-0.017446276 -0.06796138 -0.020908561
-0.013375065 -0.068493329 -0.022493957
-0.0084334984 -0.069199465 -0.024142962
0.033133414 -0.069632761 -0.024857473
0.038134519 -0.068213299 -0.024356667
0.042304743 -0.068477102 -0.022463227
0.045085132 -0.069590852 -0.020354459
-0.031008124 -0.060537156 -0.020571625
-0.028118026 -0.061716497 -0.020957792
-0.022770535 -0.062628604 -0.022827348
-0.01818753 -0.063780777 -0.024025669
-0.014968976 -0.06493783 -0.024529316
0.039045744 -0.06088803 -0.024397273
0.042343043 -0.061770145 -0.022488572
0.045327481 -0.063346863 -0.020479301
-0.040180907 -0.055091508 -0.020193264
-0.037441459 -0.056436133 -0.021190166
-0.033689346 -0.058470502 -0.021180274
-0.028691214 -0.058454711 -0.023741247
0.038121715 -0.0581019 -0.024083193
0.041148372 -0.059430305 -0.022257546
-0.045524325 -0.050423414 -0.023232536
-0.042448867 -0.052529812 -0.022815531
-0.039013788 -0.054410882 -0.022758994
0.034412857 -0.051174209 -0.02441369
0.036785938 -0.051637527 -0.022617862
-0.050942447 -0.045800105 -0.023317629
-0.047999814 -0.048281331 -0.024027653
-0.044922579 -0.049947225 -0.024721604
0.03380841 -0.046784952 -0.023802884
0.036399037 -0.047155283 -0.02158278
-0.051502045 -0.043529164 -0.023411803
0.033487778 -0.042322904 -0.023608398
0.036238559 -0.042563897 -0.021123344
-0.051576182 -0.03611359 -0.023458451
0.034202378 -0.037255354 -0.023531659
0.035897672 -0.036832176 -0.022069002
-0.051390119 -0.031490441 -0.024176452
0.034476954 -0.033383314 -0.023952225
0.036604334 -0.032525957 -0.022368042
-0.051522039 -0.026914727 -0.023648212
0.034657534 -0.029707557 -0.024906687
0.038108405 -0.027518697 -0.022461932
0.040087424 -0.027869916 -0.020251205
-0.051525224 -0.02207634 -0.023987798
0.039193295 -0.022741361 -0.023042217
0.040597014 -0.022743959 -0.021626703
-0.051706985 -0.017396895 -0.023231493
0.039203659 -0.018008819 -0.024457354
0.041962415 -0.018006517 -0.021609586
-0.051532671 -0.012954675 -0.024077943
0.039651297 -0.013623992 -0.024788359
0.043442711 -0.01311066 -0.021502756
0.045309819 -0.010322401 -0.020379463
-0.0515397 -0.0076088021 -0.024003837
0.039939854 -0.0076854392 -0.02481059
0.043627378 -0.0081583029 -0.022619581
0.045508467 -0.0079995878 -0.020329058
-0.051570293 -0.0024929268 -0.023732798
0.039431822 -0.001402461 -0.024916811
0.043791972 -0.0020915302 -0.023791065
0.046031225 -0.0013300563 -0.02157012
-0.051935229 0.0025942032 -0.022520194
0.039486963 0.00082833343 -0.024968399
0.043076847 0.002403826 -0.024313966
0.046145316 0.0021328914 -0.022474993
-0.052041758 0.0069906665 -0.022159154
0.041925471 0.0070561655 -0.024683448
0.046642799 0.00761974 -0.02309536
-0.052054584 0.01218164 -0.021992825
0.04312608 0.013018245 -0.024676252
0.047381673 0.012645432 -0.023167185
-0.051869534 0.017275682 -0.022323648
0.04419693 0.017466309 -0.024540998
0.047993325 0.017992381 -0.023114679
-0.051670037 0.021577273 -0.023050064
0.044113059 0.021827824 -0.024675611
0.048458125 0.022219395 -0.02321877
0.050318286 0.024052577 -0.021002544
-0.051843714 0.027513564 -0.02238597
0.04445317 0.027184647 -0.024744321
0.049014602 0.027944077 -0.023356615
0.050402105 0.027201068 -0.021619208
-0.051846616 0.032352362 -0.022451995
0.044079658 0.031060172 -0.024917305
0.048583053 0.032340579 -0.023599576
0.050569545 0.031787034 -0.022016471
-0.051428527 0.037437782 -0.024214773
0.044219367 0.036499847 -0.024934869
0.048482779 0.037478063 -0.023753414
0.050847098 0.037154399 -0.022157077
-0.051400524 0.042202909 -0.024230221
0.04428336 0.041457672 -0.024955761
0.04786187 0.041943297 -0.024003107
0.050903678 0.043023732 -0.022407457
-0.051379923 0.047117934 -0.024296248
0.044907823 0.048818756 -0.024913395
0.047622412 0.04767165 -0.024152944
0.051068921 0.047707412 -0.02251539
-0.051420078 0.053290933 -0.024279067
0.04732798 0.051666308 -0.02430105
0.051523786 0.052269645 -0.022127455
-0.051407546 0.05731836 -0.024325535
0.047650632 0.056655437 -0.024274683
0.051358342 0.056645725 -0.022506973
-0.051443566 0.06136841 -0.02423854
0.047453318 0.063567616 -0.024393123
0.051696815 0.062449567 -0.022240734
-0.051450554 0.067776032 -0.024308862
0.046961024 0.067875125 -0.024573831
0.05168644 0.067384154 -0.022256274
-0.051526822 0.073633999 -0.024067096
0.047809739 0.071719758 -0.024447283
0.051353667 0.072863042 -0.022918485
-0.051940981 0.078079201 -0.022398254
0.048457097 0.076339424 -0.02437602
0.051420249 0.076757036 -0.022851076
-0.05178025 0.082025461 -0.023039607
0.048124038 0.082000263 -0.024566889
0.051295977 0.083354644 -0.023086581
-0.051753383 0.087713785 -0.0229843
0.048936687 0.088958457 -0.024398042
0.051317669 0.088193797 -0.022841638
-0.052051514 0.092852034 -0.021807943
0.044544358 0.092934459 -0.024588095
0.04855958 0.091816694 -0.023742586
0.050591543 0.091503091 -0.022410741
-0.051742811 0.097987495 -0.02326957
0.036492173 0.099570706 -0.024716862
0.041807257 0.097440787 -0.023974672
0.047773212 0.097643241 -0.021776326
-0.051839534 0.102778 -0.023270283
0.033330698 0.10312788 -0.024553364
0.037020843 0.1027206 -0.023746118
0.043139163 0.10321113 -0.021937957
0.046196803 0.1027922 -0.020817082
-0.051899441 0.10858899 -0.022846002
0.02304402 0.10941035 -0.024743035
0.027910465 0.10863458 -0.024099052
0.032432701 0.10703322 -0.02364992
0.038165707 0.10729504 -0.022120889
0.043257508 0.10728962 -0.020597838
-0.050513964 0.11119974 -0.021841506
-0.047506776 0.11254428 -0.023067152
-0.042906299 0.1133121 -0.022886215
-0.037927166 0.11335189 -0.023178717
-0.031800453 0.11332184 -0.02368453
-0.027615802 0.11337442 -0.023223119
-0.022563284 0.11321069 -0.02308218
-0.017590342 0.11296637 -0.022931328
-0.012699555 0.11269737 -0.02267734
-0.0071581402 0.11253649 -0.023484973
-0.0024135108 0.11242829 -0.023368374
0.0022022212 0.11244754 -0.023236377
0.0075883339 0.11249426 -0.023350853
0.011851883 0.11252724 -0.023148954
0.018110668 0.11201227 -0.02352413
0.022669675 0.11237015 -0.022504803
0.027424788 0.11220823 -0.022071721
0.032573789 0.11223911 -0.021086289
0.036923718 0.1116263 -0.020627316
0.040906455 0.11056916 -0.020176712
0.0041804179 -0.11249299 -0.015741844
0.0074359598 -0.11248323 -0.017203741
0.012368008 -0.1126844 -0.018381391
0.017328205 -0.11285402 -0.017909139
0.022244768 -0.11279529 -0.016323945
0.025347855 -0.11186041 -0.015068856
0.0043262918 -0.1070292 -0.016867874
0.0060880072 -0.10711604 -0.018182946
0.013599474 -0.10830632 -0.019576063
0.01774059 -0.10825137 -0.018965343
0.020963861 -0.10719983 -0.018348126
0.025480732 -0.10768182 -0.015662886
0.0045442344 -0.10193375 -0.017341722
0.0059238002 -0.10268494 -0.018421181
0.014033501 -0.10239404 -0.01968017
0.017888581 -0.10246367 -0.019139189
0.021120127 -0.10246825 -0.018639475
0.026419804 -0.10193823 -0.0152509
-0.00024606966 -0.096120253 -0.01524094
0.0027635936 -0.097179793 -0.016866585
0.0061109611 -0.097961769 -0.018733742
0.013432468 -0.09767127 -0.019829715
0.018205637 -0.096464962 -0.019611135
0.022163702 -0.096744202 -0.018542917
0.026330056 -0.096624188 -0.01595041
0.0027489113 -0.091390744 -0.016093772
0.0080448724 -0.091654494 -0.018614197
0.012366597 -0.091893435 -0.01946109
0.017785205 -0.093267828 -0.019237466
0.022780839 -0.093607999 -0.017569913
0.025820509 -0.093321823 -0.015693057
-0.0013654806 -0.088307828 -0.015627999
0.0021232602 -0.088457614 -0.01783645
0.0070954752 -0.089427441 -0.018890366
0.012993255 -0.089727424 -0.019593624
0.017683791 -0.089743413 -0.019189393
0.023089882 -0.089014672 -0.018098921
0.026394514 -0.088596284 -0.01634687
-0.0052779978 -0.081477404 -0.015348559
-0.0026855771 -0.082143582 -0.016939476
0.0013441895 -0.082512498 -0.01930164
0.024031153 -0.083755635 -0.019705513
0.027673626 -0.082355201 -0.018185236
0.031507902 -0.081654817 -0.016101863
-0.012838183 -0.075996406 -0.015523586
-0.0075629214 -0.077639885 -0.0176464
-0.0037350208 -0.079108238 -0.018803364
0.028908251 -0.079208359 -0.019759109
0.033218395 -0.078039289 -0.018522818
0.037324857 -0.076637916 -0.017533759
0.040322632 -0.075364314 -0.017188404
-0.020800572 -0.07032299 -0.015948204
-0.017265165 -0.071998216 -0.016759546
-0.013209906 -0.072575942 -0.019067992
-0.0096452702 -0.074934535 -0.019046638
0.038563669 -0.0745873 -0.0191087
0.042224452 -0.073157862 -0.018495927
0.047771655 -0.070996143 -0.017016536
0.05011712 -0.070364684 -0.015179226
-0.026293686 -0.066249162 -0.016339878
-0.022847161 -0.06793873 -0.017272577
-0.01814113 -0.0693973 -0.019101411
0.04790324 -0.068715923 -0.018015817
0.050091177 -0.066798754 -0.015535719
-0.031914618 -0.061347172 -0.018349702
-0.028393047 -0.063707612 -0.018299541
0.044605318 -0.060487881 -0.01936873
0.047853228 -0.063530773 -0.017689761
0.050000027 -0.064761169 -0.015506211
-0.040555932 -0.055461362 -0.017188199
-0.036714293 -0.057866029 -0.018908123
-0.034123577 -0.059558474 -0.019322574
0.042901624 -0.055965625 -0.017994935
0.045135744 -0.056619078 -0.015633205
-0.045987297 -0.051311824 -0.017355012
-0.043237437 -0.053432271 -0.017326659
0.039409105 -0.050583005 -0.019084638
0.042270839 -0.052418441 -0.017312607
0.045200177 -0.054320861 -0.015152887
-0.051870689 -0.046215307 -0.017355708
-0.048694767 -0.049158297 -0.016839083
0.038712773 -0.047354724 -0.019176716
0.041429643 -0.047900669 -0.016632294
-0.053004082 -0.043791112 -0.016656347
0.03856276 -0.042635731 -0.018700363
0.041159857 -0.042359155 -0.015876289
-0.053263683 -0.036832377 -0.016096702
0.038914688 -0.036843937 -0.01852561
0.041168783 -0.037381887 -0.015925545
-0.053220611 -0.032108441 -0.016217723
0.039370544 -0.033367131 -0.018859586
0.041280832 -0.032859333 -0.01684783
-0.05296503 -0.026821516 -0.017568786
0.039752647 -0.029717198 -0.019402876
0.041630935 -0.028458996 -0.017958656
-0.052958757 -0.021334957 -0.01759737
0.042966638 -0.022938637 -0.017994443
0.045438271 -0.020343767 -0.015798111
-0.052972939 -0.016500859 -0.0178777
0.043849252 -0.017995834 -0.018685138
0.046193894 -0.016284635 -0.016198566
-0.053012583 -0.011482276 -0.017915685
0.044671252 -0.013373829 -0.019440331
0.046321142 -0.012636856 -0.017188281
-0.052920859 -0.0066512972 -0.018546423
0.047322772 -0.0066787945 -0.017992703
-0.053193469 -0.0022990727 -0.017316919
0.048085809 -0.0021059494 -0.017884443
-0.052998047 0.0031185956 -0.018410662
0.049219731 0.0023466549 -0.016562372
0.050297186 0.0035626311 -0.015378304
-0.053052757 0.0072885156 -0.018102825
0.049276166 0.0072294399 -0.017989248
0.050335523 0.0081589064 -0.015824372
-0.052858815 0.012527718 -0.018735604
0.049590953 0.012060085 -0.019051099
0.050711676 0.01281048 -0.016324541
-0.052770618 0.017128369 -0.018565351
0.050691664 0.017495921 -0.017715368
-0.052869033 0.022524077 -0.017795609
0.051187944 0.022555172 -0.017793532
-0.053013068 0.027008371 -0.017211771
0.051716853 0.027028903 -0.017537558
-0.05305972 0.03125247 -0.016895307
0.05172275 0.03302598 -0.019250607
-0.052806467 0.037028801 -0.018141555
0.052817937 0.038122639 -0.016508229
-0.052846603 0.041374996 -0.018026836
0.052674666 0.042796075 -0.017873429
-0.052747626 0.047073185 -0.018574649
0.052842338 0.047599666 -0.017975634
-0.052939076 0.054312523 -0.017874634
0.053182218 0.053253621 -0.017290656
-0.052622057 0.058159694 -0.019555241
0.053349335 0.056923263 -0.016872251
-0.052961666 0.062691949 -0.017899618
0.053338993 0.063181542 -0.017046919
-0.052602775 0.066423334 -0.019609064
0.053014219 0.067518689 -0.018423876
-0.05282408 0.072147988 -0.01865462
0.053134471 0.071956001 -0.017789304
-0.053200409 0.079419486 -0.016984789
0.052988969 0.077662259 -0.018293291
0.052800119 0.082974091 -0.019064307
-0.053083315 0.087334126 -0.017517198
0.053119183 0.087642863 -0.017097004
-0.05300992 0.094758816 -0.017702058
0.05186541 0.091948472 -0.017619118
-0.053585999 0.099410057 -0.015021849
0.049002498 0.099729024 -0.017441092
0.050232179 0.096028313 -0.01833524
-0.053398717 0.10335475 -0.016772123
0.046872392 0.10371339 -0.019070111
-0.053265423 0.10815811 -0.017326223
-0.012074594 0.10990974 -0.015189469
-0.0083227493 0.10994121 -0.015344243
-0.0019884459 0.10988221 -0.015293062
0.044238381 0.10874948 -0.019308457
0.045623172 0.10693207 -0.018519906
-0.051288456 0.11169956 -0.017095352
-0.048152372 0.11355866 -0.017446415
-0.041889761 0.11381057 -0.017088108
-0.037485361 0.11339499 -0.017238202
-0.032385003 0.11312059 -0.017843848
-0.026870636 0.11272164 -0.018207017
-0.022918619 0.1123881 -0.01834837
-0.017854616 0.11149051 -0.017559523
-0.012042068 0.11139967 -0.018062998
-0.0076616579 0.11067916 -0.016892377
-0.002274638 0.11129661 -0.017950105
0.0030344205 0.11165526 -0.018674551
0.0072836434 0.11188745 -0.018627258
0.011996916 0.11232907 -0.018572805
0.017485715 0.11240195 -0.017432295
0.022695694 0.11289215 -0.017148523
0.027594203 0.11323635 -0.016959874
0.033034574 0.11343769 -0.018420171
0.037954472 0.11316767 -0.018182738
0.042167217 0.11208948 -0.018128974
-0.00067006011 -0.11280917 -0.011384596
0.001462986 -0.11291684 -0.013465345
0.0077074277 -0.11316495 -0.012184137
0.012446685 -0.11309293 -0.013163906
0.017019777 -0.11330439 -0.012248843
0.023976626 -0.11319335 -0.014053409
0.027504032 -0.11265431 -0.012451896
-0.00077917398 -0.10777728 -0.013155901
0.00050081988 -0.10832106 -0.014133133
0.027968042 -0.10717643 -0.013975834
0.030229986 -0.10912104 -0.010658031
-0.00082045182 -0.10265829 -0.013581933
0.00024237658 -0.10170093 -0.014267999
0.028135486 -0.10203077 -0.014257211
0.030492531 -0.10172701 -0.010825274
-0.0015558889 -0.096864328 -0.013296814
0.00028615416 -0.098710008 -0.014435619
0.028483963 -0.09822689 -0.013942231
0.030923558 -0.096375942 -0.011131158
-0.0015901746 -0.091292113 -0.012132949
0.0007598729 -0.091250792 -0.014617625
0.028288379 -0.092742324 -0.013348629
0.030569084 -0.093816161 -0.010796513
-0.0056710537 -0.087627031 -0.011094254
-0.002896338 -0.088728428 -0.013115197
0.00038074097 -0.089637339 -0.014787038
0.028031711 -0.08952333 -0.013711589
0.03121973 -0.088151217 -0.012276242
-0.010304465 -0.080483012 -0.01140042
-0.0072467183 -0.082333587 -0.012731913
-0.0047636074 -0.083583415 -0.014470006
0.03350053 -0.082221419 -0.013663998
0.035988946 -0.081715196 -0.011350734
-0.016218795 -0.075589217 -0.012331024
-0.012737348 -0.078321338 -0.012065144
-0.009609798 -0.079166107 -0.014155664
0.037772588 -0.079185605 -0.013706112
0.041559815 -0.077438012 -0.01287894
0.045008153 -0.076681592 -0.010286052
-0.021715317 -0.070992865 -0.013187364
-0.017825581 -0.073886007 -0.013351289
0.048495132 -0.073214933 -0.013221607
0.051382244 -0.07143262 -0.012319065
-0.027066844 -0.066759735 -0.013079328
-0.02380061 -0.06914489 -0.013846885
0.052081175 -0.066552632 -0.012185842
-0.031791475 -0.063178092 -0.012290789
-0.029496184 -0.064758867 -0.013415262
0.049449608 -0.062008336 -0.013492859
0.051161215 -0.064385682 -0.013036543
-0.040864162 -0.055978343 -0.012881882
-0.037807364 -0.058436126 -0.01207284
0.047488812 -0.056653142 -0.012273913
-0.045885593 -0.052095108 -0.012538048
-0.043300577 -0.054041725 -0.013291659
0.0444015 -0.051338371 -0.013758339
0.046549454 -0.053140081 -0.011859554
-0.052593537 -0.046104711 -0.012995618
-0.049177691 -0.049291778 -0.012904062
0.043854963 -0.047211599 -0.013229821
0.045917641 -0.048544727 -0.01115675
-0.053765934 -0.04364169 -0.012442701
0.044019192 -0.043337114 -0.012553742
0.045589346 -0.044157207 -0.010667228
-0.054020774 -0.036411066 -0.011549375
0.043716658 -0.038205087 -0.012783302
0.04551458 -0.038842387 -0.010555706
-0.054092545 -0.031981189 -0.011517025
0.04394234 -0.03307692 -0.013170738
0.045862012 -0.032993406 -0.010636983
-0.053776488 -0.025869431 -0.012152106
0.044121277 -0.028078364 -0.014311927
0.046433676 -0.027073704 -0.01130525
0.044844039 -0.023417063 -0.014825083
0.046645138 -0.022033291 -0.012682929
-0.053804178 -0.015508932 -0.011411533
0.048186257 -0.016501168 -0.012283444
-0.053663462 -0.0112557 -0.013343114
0.048482917 -0.012624196 -0.012778929
0.050284289 -0.011511595 -0.010287772
-0.053572785 -0.0069613233 -0.014206839
0.049023956 -0.0080120331 -0.013567671
0.05050024 -0.0066217547 -0.01147465
-0.053780183 -0.0025986256 -0.012132576
0.049577486 -0.0033077199 -0.013762046
0.050763622 -0.0014025635 -0.012118608
-0.053823072 0.0028959841 -0.011965134
0.049840663 0.00085339602 -0.014438396
0.05105447 0.0023378611 -0.012836858
-0.053791068 0.0080182971 -0.012646169
0.051937163 0.0073357862 -0.012072518
-0.053673137 0.012577021 -0.012598542
0.052014533 0.012907429 -0.012405539
-0.053620417 0.017317256 -0.012696566
0.052284621 0.016125213 -0.012293125
-0.05360961 0.022333438 -0.012695454
0.052712552 0.022527117 -0.012502028
-0.053656608 0.027120715 -0.012248748
0.053092331 0.028084064 -0.012772459
-0.053545352 0.031313539 -0.013389761
0.053473093 0.03210355 -0.012342369
-0.053680222 0.036766037 -0.012333048
0.053514626 0.038031019 -0.013613207
-0.053777408 0.041483123 -0.011748384
0.054013196 0.043533091 -0.012312282
-0.054024767 0.047811974 -0.011556927
0.05406912 0.047301371 -0.012572477
-0.053845074 0.051144302 -0.01230294
0.054093432 0.052128825 -0.013027689
-0.053864066 0.056845833 -0.012236782
0.054438315 0.058628246 -0.011434367
-0.053983379 0.064239696 -0.011490094
0.05429554 0.06147632 -0.012226449
-0.054010171 0.06836237 -0.011608178
0.054234348 0.067439474 -0.012373318
-0.054003414 0.072486311 -0.011759821
0.054288305 0.072264567 -0.011801002
-0.053781815 0.076180227 -0.013431557
0.054023262 0.077380128 -0.013097085
-0.053920567 0.082498997 -0.012653116
0.053972412 0.08141306 -0.013110247
-0.053923331 0.088620961 -0.013123329
0.053701624 0.087794237 -0.013300124
-0.054095268 0.092005238 -0.011935267
0.052214131 0.093106277 -0.013859685
-0.054136973 0.097218923 -0.011681107
0.051113568 0.096661024 -0.013547288
-0.05432269 0.103513 -0.011602965
0.04877143 0.10310866 -0.013298911
-0.054033559 0.10856507 -0.012472038
-0.0212024 0.10984259 -0.012838283
-0.016870603 0.10967027 -0.013399067
-0.01314422 0.10946704 -0.013488542
-0.0083034756 0.10923101 -0.013244861
-0.0023379188 0.10909389 -0.013156734
0.0028192394 0.10907669 -0.013270191
0.0069431635 0.10922669 -0.013493066
0.012660544 0.10923111 -0.012879725
0.017081426 0.10931904 -0.012480999
0.023249401 0.10958029 -0.011231969
0.026640281 0.10983992 -0.010242619
0.046644378 0.1081027 -0.013496583
-0.051467441 0.11227964 -0.01204916
-0.048246454 0.11348309 -0.012233877
-0.042392023 0.11328956 -0.012579757
-0.03761261 0.11228049 -0.012753733
-0.031867079 0.11104322 -0.011920636
-0.026365921 0.11047404 -0.012790419
-0.022659024 0.11019771 -0.013931083
-0.018987739 0.11011853 -0.014647618
0.02338169 0.11052597 -0.013009635
0.028260544 0.11164377 -0.012874661
0.033099446 0.11298349 -0.013178579
0.036805402 0.11345203 -0.012843743
0.043324448 0.11293001 -0.012104831
0.045341708 0.1115118 -0.011879095
-0.0031364972 -0.11279416 -0.0072115199
0.0024667978 -0.11328161 -0.0075560752
0.0090208147 -0.11315066 -0.0095048742
0.01237233 -0.11312566 -0.0069266101
0.017772885 -0.11329052 -0.0071699512
0.021864984 -0.11353057 -0.007504513
0.029337049 -0.11307126 -0.0089584747
0.031080492 -0.11261582 -0.0070583541
-0.0051204353 -0.10610814 -0.00694553
-0.0045612897 -0.10723349 -0.0072494862
0.032162495 -0.10741783 -0.0079068737
-0.0051850937 -0.10346847 -0.0067520584
-0.0045553269 -0.10377499 -0.0074033053
0.032531247 -0.10188854 -0.007883884
-0.0055139558 -0.097645894 -0.0067560831
-0.0044907914 -0.097032607 -0.0087629221
0.032679535 -0.097860567 -0.0078003723
-0.005175787 -0.091477573 -0.0056104064
-0.0037779575 -0.090874881 -0.0084180981
0.031745896 -0.091871023 -0.0081737777
-0.0063658813 -0.088747829 -0.0067831092
-0.0043134536 -0.089574836 -0.0081388159
0.033112332 -0.088988565 -0.0074944478
0.035451632 -0.086855173 -0.006315521
-0.010866305 -0.082132235 -0.0074575017
-0.0093488088 -0.083170764 -0.0088932309
0.03773303 -0.08226677 -0.0074631306
0.040570147 -0.080307864 -0.0074224267
-0.017261924 -0.076594211 -0.0073108785
-0.013340555 -0.079623796 -0.0082806339
0.04310029 -0.078623645 -0.0080093956
0.047251672 -0.076279297 -0.0075194845
-0.022335397 -0.072218634 -0.0070995823
-0.019407153 -0.074463673 -0.008247734
0.048554361 -0.07495831 -0.0092191724
0.053267866 -0.071961552 -0.0076880865
-0.027875237 -0.067417108 -0.0067959782
0.053954449 -0.066853493 -0.0072450517
-0.035833973 -0.060608856 -0.0073044067
-0.032891158 -0.063079067 -0.0071749231
0.051839668 -0.062160827 -0.0069744228
-0.042239573 -0.055478483 -0.0078694765
-0.039135847 -0.057871629 -0.0082328208
0.049378492 -0.056166526 -0.0086896205
0.05031937 -0.056269277 -0.0061612213
-0.046465468 -0.052134771 -0.0069612106
-0.044272318 -0.0540809 -0.0054251738
0.048472479 -0.052437127 -0.0075612138
-0.052955091 -0.046304703 -0.0072265002
0.047579229 -0.047956847 -0.0076614628
-0.054369751 -0.043538541 -0.0074846041
0.046954297 -0.042556267 -0.007588028
-0.054389548 -0.036814548 -0.0085077407
0.047220133 -0.037495699 -0.007226849
-0.054510787 -0.031891201 -0.0074764658
