# .PCD v0.7 - Point Cloud Data file format
VERSION 0.7
FIELDS x y z
SIZE 4 4 4
TYPE F F F
COUNT 1 1 1
WIDTH 1259
HEIGHT 1
VIEWPOINT 0 0 0 1 0 0 0
POINTS 1259
DATA ascii
-0.0018295624 0.017676067 -0.032407913
0.0024361552 0.018070091 -0.032416537
0.0049152626 0.018663025 -0.032163996
-0.0050994847 0.022298016 -0.032067705
-0.001544282 0.021842401 -0.03241251
0.0026351896 0.02165796 -0.032385889
0.0049476009 0.021528384 -0.032155205
-0.0051073194 0.026359662 -0.032063708
-0.0029170129 0.025761604 -0.032323752
0.0012572507 0.026304351 -0.032439787
0.004773696 0.025964642 -0.032154024
-0.012369578 0.030998997 -0.032182079
-0.0094738211 0.030788831 -0.03285116
-0.0058464394 0.030743193 -0.03324059
-0.002185741 0.030593103 -0.033161093
0.0015056883 0.030801615 -0.033393003
0.0058339653 0.030974057 -0.033179518
0.0096482914 0.03114995 -0.032911383
0.01251536 0.031356983 -0.032221068
-0.012459746 0.033503808 -0.032167055
-0.0097326338 0.033849861 -0.03290423
-0.0059509953 0.033903059 -0.033649273
-0.0018887774 0.034276407 -0.033774119
0.0017727162 0.034107331 -0.033783395
0.006503752 0.034100182 -0.033613618
0.0098057371 0.034180906 -0.032865103
0.012521923 0.033312209 -0.032262884
-0.00023127673 -0.024007196 -0.028114719
-0.01305682 -0.021380942 -0.028664572
-0.0097802756 -0.021940246 -0.029452452
-0.0057060006 -0.022328481 -0.030164257
-0.0021344735 -0.022573812 -0.030508613
0.0020685738 -0.022580987 -0.030483652
0.0062090475 -0.022105955 -0.030436024
0.0098739071 -0.021626553 -0.030232038
0.013636469 -0.021164563 -0.029019162
0.016199769 -0.020391891 -0.028192336
-0.01368891 -0.018532032 -0.029097931
-0.010188713 -0.018574607 -0.030593362
-0.0063368091 -0.019093797 -0.031672839
0.0070388229 -0.019012395 -0.031872377
0.010057735 -0.01802738 -0.031207481
0.013597731 -0.018426403 -0.029872408
0.016698642 -0.018718112 -0.028310224
-0.016005831 -0.01302418 -0.028001947
-0.013875824 -0.013531069 -0.029135447
-0.010519736 -0.013840591 -0.030599469
-0.0065547787 -0.013555067 -0.031707708
0.0079526044 -0.015794735 -0.031843364
0.010148453 -0.014683564 -0.031259939
0.013591362 -0.014176068 -0.029999753
0.016679866 -0.01476239 -0.028517826
-0.014038125 -0.010777227 -0.029074399
-0.0098055704 -0.010191567 -0.030851046
-0.0060418909 -0.0096245073 -0.031834014
0.0075383708 -0.0097318003 -0.031924162
0.0095574055 -0.010466668 -0.031404477
0.014254747 -0.0099891862 -0.02966097
0.016868943 -0.010041078 -0.028363027
-0.013928237 -0.0056039984 -0.029153308
-0.0093747396 -0.0056275465 -0.030989686
-0.0069105243 -0.0059537785 -0.031618379
0.0099565564 -0.0055295825 -0.031221526
0.013992533 -0.0057333936 -0.029721672
0.01667876 -0.0053708083 -0.028392522
-0.013928956 -0.00067737809 -0.029187879
-0.0096108168 -0.0025123372 -0.030892286
-0.0070413416 -0.0027381536 -0.031654932
0.0074333572 -0.001724105 -0.031854808
0.010455315 -0.0020541609 -0.031044148
0.014853501 -0.0019106334 -0.029290231
0.016648166 -0.0017798051 -0.02834978
-0.016084326 0.0021631594 -0.028066086
-0.0135677 0.0026981726 -0.029374266
-0.010015984 0.0027616757 -0.030803995
-0.0072488692 0.0018637336 -0.031632841
0.0071405815 0.0010952456 -0.031902619
0.010096497 0.0021193214 -0.031130573
0.014216493 0.0021605112 -0.029561717
0.016680516 0.0028950328 -0.028279595
-0.016138757 0.0079453485 -0.028053578
-0.01312029 0.0059739673 -0.029596951
-0.010573788 0.0062172757 -0.030641042
-0.0066506262 0.0060748109 -0.031757038
0.0075800256 0.0063415924 -0.031770423
0.009928897 0.0063850828 -0.03115969
0.014520647 0.0056438898 -0.029346691
0.016741484 0.0059738983 -0.02820266
-0.013603939 0.010101147 -0.029404292
-0.0098636076 0.010115746 -0.030874213
-0.0069258842 0.0099215182 -0.031680811
0.0070321029 0.010073701 -0.031869546
0.0098883891 0.010487336 -0.031133026
0.014255045 0.0099971052 -0.029431557
0.016615374 0.0095272921 -0.028222587
-0.016201813 0.014284566 -0.028069651
-0.013407364 0.013621531 -0.029521974
-0.010317876 0.013659477 -0.030737102
-0.0067220442 0.014146278 -0.031745996
0.006907098 0.013971129 -0.031866331
0.0093726236 0.013385857 -0.031255588
0.013888601 0.013962994 -0.029546686
0.016397664 0.013926883 -0.028301993
-0.016191792 0.017322822 -0.028111013
-0.012963399 0.018212726 -0.029746743
-0.010515147 0.017868912 -0.03068161
-0.0068078213 0.018331956 -0.03172987
0.0069839098 0.017893396 -0.031826422
0.010344665 0.01819513 -0.030893803
0.014603695 0.018247548 -0.029175729
0.016414048 0.016777653 -0.028253786
-0.013589373 0.022245122 -0.029480003
-0.010315066 0.021958934 -0.030787541
-0.0068809995 0.022028524 -0.031753734
0.0071729128 0.021330245 -0.031756435
0.010541159 0.021367194 -0.030834625
0.014962539 0.0221556 -0.028961781
0.016433991 0.021341205 -0.028198401
-0.016342025 0.027168304 -0.028096922
-0.013959578 0.026003327 -0.029332036
-0.010042174 0.025742179 -0.030898899
-0.0066854064 0.026244344 -0.031801779
0.0068772091 0.025786817 -0.031767435
0.010267202 0.026078593 -0.030884705
0.014504721 0.026271777 -0.029133284
0.016367361 0.027048737 -0.028143514
-0.020111835 0.030887717 -0.028076308
-0.017708819 0.030540485 -0.02877241
-0.014061817 0.030505273 -0.030107815
-0.010038634 0.030598911 -0.03112087
-0.0073710578 0.030527554 -0.031794421
0.0068814983 0.030833527 -0.03177841
0.010318574 0.030743673 -0.030991878
0.013654061 0.030571954 -0.03019747
0.017713858 0.031212192 -0.029205533
0.020216493 0.031798203 -0.02803606
-0.020187728 0.033007033 -0.028098833
-0.018049028 0.033787653 -0.029079109
-0.013430952 0.034434538 -0.029582532
-0.01046914 0.034650069 -0.029388405
-0.0060233423 0.034825779 -0.03057518
-0.001615148 0.034744378 -0.031049453
0.00092431827 0.034979347 -0.03100352
0.0060883816 0.035039485 -0.030510454
0.010170027 0.03511076 -0.029562455
0.013347819 0.034804311 -0.029297719
0.018000925 0.033979531 -0.029175676
0.02031222 0.032136071 -0.028075382
-0.0092841843 0.036138479 -0.028377159
-0.0056186947 0.036273118 -0.028773518
-0.0017589012 0.036307309 -0.028995186
0.0018603078 0.036367301 -0.029073544
0.0050819525 0.036381926 -0.029155405
0.0095891999 0.036281519 -0.028408704
-0.013519899 -0.024170084 -0.024518782
-0.0096419752 -0.024256688 -0.025687285
-0.0060432903 -0.024265211 -0.026570862
-0.0026296747 -0.024334008 -0.026421487
0.0023248142 -0.024347886 -0.026023321
0.005308432 -0.024262378 -0.02599347
0.0097556813 -0.0241192 -0.025342971
0.01268219 -0.024052456 -0.024352834
-0.020223897 -0.020674821 -0.024426842
-0.017823065 -0.02147761 -0.025637038
-0.014552289 -0.022438571 -0.026845977
-0.010417798 -0.023555528 -0.027479412
-0.0072889603 -0.02389494 -0.02783177
0.0062385993 -0.023890132 -0.027735783
0.01047982 -0.023695884 -0.026956677
0.01408667 -0.023188528 -0.026355617
0.018617259 -0.021917693 -0.025473649
0.020572213 -0.021524545 -0.024572691
-0.020346845 -0.019314166 -0.024701724
-0.017672352 -0.018480092 -0.026763687
-0.015675981 -0.019974992 -0.027882343
0.018737109 -0.018890493 -0.027011318
0.021497706 -0.018574232 -0.02500321
-0.021010695 -0.013096978 -0.024311081
-0.017049279 -0.014383362 -0.027317913
0.018864274 -0.01412283 -0.027167538
0.021519681 -0.013934186 -0.025201062
-0.020944001 -0.010296586 -0.024412118
-0.017469119 -0.010639207 -0.0270593
0.018598439 -0.010065998 -0.027293473
0.021198068 -0.0099666063 -0.025405334
-0.021029348 -0.0055142529 -0.024402242
-0.017993802 -0.0062497049 -0.026727391
0.019084344 -0.0054024225 -0.026885802
0.020996613 -0.0052901767 -0.02547285
-0.020988666 -0.0023010648 -0.024470864
-0.017827434 -0.002085343 -0.026861159
0.018760657 -0.0018794171 -0.02703757
0.021323459 -0.001875842 -0.025132548
-0.020790715 0.0022263357 -0.024702623
-0.018627368 0.0019183644 -0.026369249
0.018323055 0.0016603867 -0.027291596
0.021218702 0.0012509067 -0.02515989
-0.020889988 0.0057060453 -0.024649976
-0.018091939 0.0054323971 -0.026785018
0.01800194 0.0063629309 -0.027412366
0.021481086 0.0062607541 -0.024850408
-0.020386934 0.0092634698 -0.025129467
-0.018054338 0.009625135 -0.026840968
0.017997772 0.009816234 -0.027362293
0.021226127 0.010098117 -0.025005534
-0.020736728 0.014389431 -0.024865469
-0.018354759 0.014225051 -0.026659384
0.018083235 0.013653375 -0.027264526
0.020948961 0.013692623 -0.02518142
-0.021244179 0.018084729 -0.024488948
-0.018818572 0.017678745 -0.026393561
0.018600821 0.017120827 -0.026873657
0.021344781 0.018214634 -0.024774844
-0.021067457 0.02272065 -0.02470905
-0.018461743 0.022676716 -0.026709756
0.018472439 0.021964129 -0.026888203
0.021162972 0.022463208 -0.024846734
-0.021006102 0.02671339 -0.024809146
-0.018344061 0.026780387 -0.026801443
0.018249189 0.026974501 -0.026977405
0.02095372 0.026747078 -0.024961568
-0.024402192 0.030731263 -0.024250038
-0.021429857 0.030269206 -0.025211351
-0.018366724 0.030169494 -0.026942022
-0.0048293797 0.030587645 -0.024015129
-0.0018009527 0.030373942 -0.024101263
0.001129315 0.030472618 -0.024184015
0.018698458 0.030407377 -0.026713978
0.021762641 0.031219216 -0.025627002
0.02433089 0.031647068 -0.024329053
-0.02443455 0.033312306 -0.024350166
-0.021322299 0.033931091 -0.025973173
-0.01859259 0.034667782 -0.02560189
-0.01390529 0.034965083 -0.026491445
-0.0091183316 0.033300683 -0.02462836
-0.0056803809 0.033359427 -0.025121825
-0.0018930027 0.033254463 -0.025711374
0.0019497216 0.033379056 -0.025724461
0.0060471259 0.033402875 -0.024986675
0.0094729234 0.033706374 -0.024751121
0.013886942 0.035178568 -0.026984977
0.017889272 0.035029441 -0.025464699
0.021768978 0.034400903 -0.025795283
0.02435267 0.033124406 -0.024550082
-0.016574387 0.036084361 -0.024439955
-0.013938974 0.036120284 -0.025582662
-0.010055802 0.036206413 -0.027179465
-0.0058200588 0.036198922 -0.027735099
-0.0017961338 0.036109708 -0.027903911
0.0026634252 0.036187101 -0.027796112
0.0053539257 0.036304243 -0.02751909
0.010902098 0.036400545 -0.026335089
0.013288777 0.036418363 -0.026095498
0.016963443 0.036390189 -0.024587313
-0.020022918 -0.02402116 -0.020456454
-0.017682262 -0.024256477 -0.021500673
-0.01452084 -0.024449585 -0.022551997
-0.0099386983 -0.024763564 -0.022118805
-0.0063207289 -0.024899397 -0.021696132
-0.0018894958 -0.024917794 -0.021755842
0.0025874118 -0.024877455 -0.021664932
0.0057042409 -0.024763554 -0.021846291
0.009700371 -0.024563799 -0.021704916
0.014225225 -0.024219617 -0.021883722
0.01686014 -0.024187725 -0.020075202
-0.024170553 -0.020716254 -0.020336967
-0.021712376 -0.021955593 -0.021865128
-0.018279176 -0.023523347 -0.023011426
0.015457388 -0.023864508 -0.023634795
0.018651996 -0.023533553 -0.022338649
0.022216056 -0.022081511 -0.022072548
0.024760537 -0.020896077 -0.020904945
-0.024390902 -0.018737901 -0.020598602
-0.022551451 -0.018929478 -0.022623356
0.023309486 -0.018612951 -0.023357963
0.025334794 -0.018688595 -0.021262318
-0.024362044 -0.012848206 -0.020844141
-0.023025511 -0.01451543 -0.02232446
0.023555037 -0.013538521 -0.023400247
0.025200594 -0.013640273 -0.02165715
-0.024638766 -0.0088963481 -0.020610459
-0.02274318 -0.010220052 -0.022707613
0.023229348 -0.0099899583 -0.023627263
0.025194367 -0.010069327 -0.021531722
-0.024357751 -0.0050321724 -0.02100045
-0.022861624 -0.0063974797 -0.022612955
0.023415143 -0.0060143056 -0.023323542
0.025141647 -0.0061531817 -0.021439362
-0.024502236 -0.002193351 -0.020875178
-0.02306045 -0.0025555559 -0.022484461
0.023267163 -0.0013938637 -0.023331085
0.024872236 -0.001819152 -0.0216517
-0.024450559 0.0024789867 -0.021024756
-0.022801267 0.0022673495 -0.022823937
0.023461023 0.0013691767 -0.023116235
0.025118159 0.0014807538 -0.021326814
-0.024787135 0.006122659 -0.020675646
-0.022971461 0.0056453492 -0.022686657
0.023120061 0.0061688856 -0.023387464
0.025172517 0.0058122664 -0.021161241
-0.024820367 0.010246432 -0.020727929
-0.022899697 0.010009984 -0.022832565
0.023207823 0.010470142 -0.023230046
0.024930701 0.010435973 -0.021378824
-0.024686413 0.014758418 -0.020941194
-0.022977697 0.014302101 -0.022779174
0.023105983 0.014293298 -0.023236278
0.025004018 0.014094966 -0.021186229
-0.024766898 0.017832993 -0.020905571
-0.022485536 0.017677365 -0.023343273
0.023069594 0.018226355 -0.023185618
0.024742819 0.018348902 -0.021382952
-0.024872892 0.021526767 -0.020875536
-0.022736112 0.021801408 -0.023168592
0.023100039 0.021225948 -0.02309561
0.024966955 0.021271467 -0.0210636
-0.024696946 0.025950169 -0.021146148
-0.022717711 0.026662942 -0.023251222
-0.0081733838 0.027925862 -0.02002125
-0.0051817633 0.027758548 -0.020624256
-0.002103254 0.027797788 -0.021060199
0.0020540149 0.027807521 -0.020966806
0.0056355721 0.027836787 -0.020425538
0.023163255 0.026454467 -0.02292062
0.025009273 0.025679227 -0.020920914
-0.028053841 0.030802161 -0.020091472
-0.02512328 0.030215142 -0.021526022
-0.023103449 0.030228296 -0.023158833
-0.012921045 0.030193012 -0.020548441
-0.0098620681 0.03058018 -0.021922363
-0.0058342624 0.030667359 -0.023293847
-0.0027174936 0.030539209 -0.023403136
0.0023673924 0.030829843 -0.023346648
0.0061968635 0.030676618 -0.023003548
0.010146956 0.030898269 -0.021659421
0.012992824 0.030763928 -0.02051663
0.022739766 0.030657351 -0.022986863
0.025268178 0.031099617 -0.021872392
-0.028188787 0.033108246 -0.020026091
-0.025991887 0.033775218 -0.021480771
-0.021556098 0.03538591 -0.02156079
-0.017823946 0.034349564 -0.021197161
-0.013959324 0.032965545 -0.021664012
-0.0099254288 0.033120677 -0.023025328
-0.0069749854 0.033093896 -0.023385663
-0.0022597131 0.032393653 -0.023448879
0.0021009662 0.032408662 -0.023455396
0.0065644928 0.033031709 -0.023243133
0.010277785 0.033388324 -0.023045778
0.014415317 0.033626106 -0.021440959
0.017141068 0.034097966 -0.021016901
0.022226702 0.035117891 -0.021690827
0.02565599 0.034515768 -0.021910347
-0.020664843 0.036022171 -0.020956326
-0.018769069 0.036044978 -0.022628244
0.015058291 0.036324691 -0.023352416
0.018092623 0.036512833 -0.022269588
0.021218317 0.03645321 -0.020940792
-0.021660838 -0.024277849 -0.017563704
-0.018168749 -0.024671141 -0.018246723
-0.014205174 -0.024987934 -0.01793002
-0.0088492595 -0.02593614 -0.016628256
-0.0059900586 -0.026015772 -0.017770227
-0.0015434618 -0.025680432 -0.018898996
0.0020257214 -0.025614556 -0.018983752
0.0063614352 -0.025491215 -0.018067716
0.0093499226 -0.025435835 -0.01672948
0.013437461 -0.024719926 -0.017513335
0.017647248 -0.024367191 -0.017354155
0.020296752 -0.024070932 -0.017489128
-0.025337473 -0.021834532 -0.017586879
-0.022877483 -0.023407565 -0.018843014
0.019519635 -0.02395403 -0.019518152
0.022313582 -0.0234315 -0.018984705
0.025701856 -0.021556161 -0.018816082
0.028377581 -0.020389538 -0.016366793
-0.026145617 -0.018846884 -0.018141665
0.027249863 -0.019040804 -0.018752178
0.028434228 -0.017852781 -0.017127307
-0.02649013 -0.01427679 -0.017886579
0.027276929 -0.01414326 -0.018978845
0.028662542 -0.013820737 -0.016827391
-0.026477503 -0.010129013 -0.018023964
0.027267501 -0.0096030012 -0.01884711
0.028546119 -0.0098147364 -0.016928444
-0.026859339 -0.0057547297 -0.017526619
0.027198702 -0.0061674877 -0.018867532
0.028457668 -0.0064501879 -0.017002249
-0.026813162 -0.0026414604 -0.01765977
0.027255578 -0.001614071 -0.018663036
0.028682429 -0.0028105117 -0.016501384
-0.026782747 0.0017325007 -0.017847486
0.027081329 0.0024048954 -0.018825108
0.02826882 0.0014123193 -0.017074287
-0.026641317 0.0060904515 -0.018145673
0.026899606 0.0053355815 -0.018984701
0.0282999 0.0055817761 -0.016890999
-0.026376095 0.010195858 -0.018655466
0.027095858 0.0097551383 -0.018586377
0.028537553 0.0098712239 -0.016355406
-0.028082568 0.014128631 -0.016061967
-0.026822459 0.01398922 -0.018050423
0.027030865 0.014039049 -0.018559525
0.02841844 0.014934802 -0.016395295
-0.028114041 0.017454658 -0.016098853
-0.026557013 0.017849395 -0.018514456
0.026984978 0.017914772 -0.018507496
0.028493645 0.01838381 -0.01613603
-0.026996128 0.021779438 -0.018007874
0.026985062 0.022055851 -0.018411288
0.028353816 0.022622248 -0.016272442
-0.026991552 0.02640016 -0.018112872
-0.013445386 0.027760265 -0.016823476
-0.0092797168 0.02717448 -0.018012494
-0.0062983492 0.027184861 -0.018938329
-0.0018754551 0.02749243 -0.017584605
0.0014207673 0.027554143 -0.017274978
0.0061871544 0.027406156 -0.018957548
0.0093512144 0.027595535 -0.018227592
0.012786795 0.027895523 -0.016646504
0.027208038 0.026266694 -0.017991677
0.028205799 0.025603298 -0.016440213
-0.029043294 0.030167883 -0.016922066
-0.027074095 0.030055774 -0.018280897
-0.016921971 0.0302354 -0.016889639
-0.014473137 0.030483287 -0.018741097
-0.010631172 0.028278839 -0.019335484
0.010331887 0.028654503 -0.019457387
0.014416972 0.030767107 -0.018932706
0.017331721 0.030859781 -0.016964503
0.026701242 0.030399485 -0.018887406
0.029007709 0.031398483 -0.017749738
-0.029101288 0.033498254 -0.01799782
-0.026050694 0.034422897 -0.017659234
-0.021335054 0.034569208 -0.01818824
-0.018191459 0.033012953 -0.018014615
-0.015512877 0.033104196 -0.019544132
0.011920704 0.032107398 -0.019978197
0.01459798 0.032758456 -0.01880043
0.018095503 0.03347468 -0.018224563
0.020768644 0.034001246 -0.016797217
0.025558162 0.035244495 -0.017963953
0.029123995 0.034052588 -0.018072862
0.019556442 0.036314271 -0.019578449
0.022286901 0.036518238 -0.018237289
0.024589844 0.036472864 -0.016981555
-0.024861064 -0.024260847 -0.013065753
-0.022577042 -0.024571896 -0.014240914
-0.01827061 -0.025039675 -0.013930312
-0.013194009 -0.025923191 -0.01329245
-0.010926167 -0.025914015 -0.01513621
-0.0062978566 -0.027085019 -0.013959247
-0.0023359663 -0.027284089 -0.013585111
0.0020369852 -0.027150234 -0.014323569
0.005345636 -0.027028363 -0.014372506
0.011249897 -0.025474735 -0.01541335
0.01340712 -0.025467966 -0.013790823
0.017082874 -0.024615845 -0.014910541
0.021823298 -0.024169361 -0.01382455
-0.028451374 -0.02103355 -0.013153582
-0.02652866 -0.022674141 -0.014373183
0.02217542 -0.023953371 -0.015933262
0.026420077 -0.022941062 -0.014645535
0.029029872 -0.021055499 -0.014114308
-0.028800981 -0.018256648 -0.013492435
-0.027866811 -0.019458424 -0.015307931
0.030115098 -0.018017629 -0.014026796
-0.028877892 -0.013807663 -0.013527323
-0.027932353 -0.013125164 -0.015514974
0.030174024 -0.014267862 -0.014001572
-0.029011825 -0.010324944 -0.013405744
-0.027871355 -0.010136355 -0.015747968
0.029680107 -0.0094609754 -0.014862645
-0.028677043 -0.0058074682 -0.014275394
-0.02791846 -0.0063485545 -0.015774997
0.029769182 -0.0058002616 -0.014605178
-0.028865261 -0.0022936573 -0.013961582
0.030008188 -0.0019111836 -0.013951927
-0.028993582 0.0023542189 -0.013908063
0.030268349 0.0020865642 -0.013242364
-0.029119784 0.0061361687 -0.013749796
0.03016798 0.0061570597 -0.013252215
-0.029227853 0.0093144123 -0.013647399
0.030215463 0.0098623578 -0.013004366
-0.028985359 0.014212194 -0.014297311
0.029938608 0.013823378 -0.013471965
-0.02914135 0.017956052 -0.014112606
0.029576784 0.018391255 -0.014060774
-0.029050168 0.021650285 -0.01450846
0.02930635 0.021702135 -0.014467255
-0.029627711 0.026101623 -0.013424849
-0.017133147 0.027662341 -0.012941071
-0.014782895 0.027593823 -0.014853956
-0.0095282299 0.027430864 -0.013359872
-0.0058287629 0.027554387 -0.014783687
-0.0024178703 0.027693663 -0.015523672
0.0018867403 0.027751567 -0.015572343
0.0065765581 0.027672328 -0.014803663
0.0097620822 0.027689328 -0.013913751
0.014168021 0.027801042 -0.014179893
0.016601235 0.02793416 -0.013005256
0.02941346 0.025963323 -0.014060657
-0.032353416 0.031226775 -0.012079232
-0.030093126 0.029969132 -0.01410515
-0.020417577 0.029952031 -0.012900297
-0.018929107 0.030235838 -0.014521274
-0.015559258 0.028200615 -0.015552391
-0.0050715902 0.028219076 -0.012943967
-0.0020625256 0.028306261 -0.013078542
0.0017584631 0.028336989 -0.013209975
0.0056154621 0.0283463 -0.012901839
0.0088764876 0.028083436 -0.01230727
0.015539037 0.02831113 -0.015258238
0.018749239 0.030945837 -0.014495176
0.020532355 0.030880876 -0.012933528
0.029931122 0.031088984 -0.014171671
0.032146674 0.031677671 -0.012410905
-0.032153055 0.033301428 -0.012324473
-0.029170725 0.034101509 -0.013559761
-0.026727121 0.034612656 -0.014346317
-0.021571673 0.032950018 -0.014129633
-0.019374169 0.032889675 -0.015350181
0.018849874 0.032527559 -0.014206981
0.021690091 0.033469681 -0.013972485
0.026896203 0.035211865 -0.014384165
0.029065834 0.035057485 -0.013293859
0.032225743 0.033690237 -0.012367608
0.023443477 0.036375407 -0.014995247
0.026116209 0.036493368 -0.01339941
-0.0044059488 -0.033335321 -0.00827609
-0.0020723809 -0.034336284 -0.0085932817
0.0021100775 -0.034719169 -0.0084435306
0.004758554 -0.034046389 -0.0083397999
-0.0046580113 -0.029196575 -0.0086375829
-0.0024778398 -0.029665841 -0.009178889
0.0022226251 -0.029164134 -0.0091977771
0.0049833059 -0.029288214 -0.0087724179
-0.025887111 -0.024367483 -0.009854516
-0.022253487 -0.024920501 -0.0099616721
-0.016481755 -0.025937397 -0.0087997746
-0.015155809 -0.025947798 -0.010711609
-0.010234125 -0.02725267 -0.0099069541
-0.0054275845 -0.027779948 -0.0098217968
-0.0026545094 -0.027807062 -0.010755123
0.0015806437 -0.027734723 -0.011055787
0.0060538943 -0.027756447 -0.0097814566
0.0096459622 -0.027391579 -0.009139508
0.015286103 -0.025643021 -0.0110114
0.016772861 -0.025531605 -0.0094348975
0.021889372 -0.024402291 -0.0099792918
0.024738094 -0.02411118 -0.008425327
-0.029201036 -0.021756671 -0.01006454
-0.027472723 -0.023650322 -0.0098239323
0.026834624 -0.023557389 -0.010443043
0.03025593 -0.021552987 -0.010001249
-0.030042125 -0.017721748 -0.01035546
0.031519178 -0.018272759 -0.0104531
0.032180429 -0.0177605 -0.0086387182
-0.030098511 -0.014701563 -0.010401486
0.031542022 -0.014746243 -0.010782747
0.032153614 -0.014308214 -0.0088270847
-0.030213101 -0.010121188 -0.010266092
0.031624485 -0.0098644942 -0.010216115
-0.0304312 -0.0059995889 -0.0098408414
0.031322457 -0.0062591685 -0.010949268
0.032010719 -0.0051285145 -0.0087184794
-0.030386878 -0.002448482 -0.010150236
0.031455293 -0.0026659588 -0.010405711
0.032074202 -0.0016594917 -0.0082522696
-0.030538209 0.0022485401 -0.010007447
0.031344235 0.0024544892 -0.010427922
-0.030571418 0.0055257296 -0.010105789
0.031239858 0.0063826642 -0.010470201
-0.03076773 0.0099883536 -0.0096690515
0.031010421 0.0099377269 -0.010989118
-0.030854201 0.013626436 -0.0096233189
0.031131791 0.013459293 -0.010507616
-0.03099509 0.018275019 -0.0094512803
0.031301629 0.01697856 -0.0097752465
-0.030989712 0.021680614 -0.009745284
-0.0048348871 0.023101825 -0.0083660297
-0.0019092433 0.023097523 -0.0095179649
0.0021562199 0.023291213 -0.0096158944
0.0051362691 0.023255773 -0.008496738
0.031410851 0.021042209 -0.0091372132
-0.030913202 0.025565712 -0.010141635
-0.02000832 0.02794311 -0.0087762484
-0.018160261 0.027288686 -0.0099812457
-0.013270786 0.027349997 -0.0094350306
-0.010780949 0.027603501 -0.010719777
-0.0055952617 0.026775841 -0.008868129
-0.002143482 0.025936954 -0.0095645897
0.0020509025 0.025884189 -0.0095949434
0.0056360788 0.026759051 -0.0087948684
0.01113041 0.027838429 -0.011486294
0.013626101 0.027744627 -0.0098136719
0.018074339 0.027625795 -0.0092836982
0.031208495 0.025882972 -0.0095210904
-0.032767572 0.030368662 -0.0092630805
-0.031090826 0.030066 -0.010615533
-0.021612484 0.030147308 -0.010235363
-0.019416995 0.028630445 -0.011088109
-0.0091487197 0.0281503 -0.0096589522
-0.006744056 0.028181793 -0.010562139
-0.0023596638 0.028123379 -0.01168129
0.0022515857 0.028155623 -0.011654561
0.006300624 0.028315356 -0.010597186
0.0094893314 0.028437115 -0.0093415249
0.012324596 0.028130323 -0.0088393893
0.019070506 0.028407317 -0.010816077
0.022003481 0.030779516 -0.010024349
0.031067723 0.030928938 -0.010126607
0.032885451 0.031613737 -0.009674578
-0.032785047 0.033421438 -0.010066251
-0.029659389 0.034469251 -0.010133434
-0.025006117 0.033101019 -0.0094073666
-0.02320859 0.032933354 -0.0097795893
0.022810815 0.033463832 -0.010622054
0.024838163 0.034041815 -0.0095860306
0.029411413 0.035200067 -0.010049788
0.032830365 0.034226414 -0.009776107
0.026266992 0.036430452 -0.010520642
0.028756032 0.03632297 -0.0091177672
-0.005122852 -0.03627035 -0.0050278087
-0.0019589744 -0.036364522 -0.0068595349
0.0022490916 -0.036295187 -0.0068570673
0.004965072 -0.036241338 -0.005951934
-0.0053180736 -0.034397181 -0.0066942656
-0.0027935777 -0.035822362 -0.0078306589
0.0026465312 -0.035865065 -0.007841059
0.0060390132 -0.034611437 -0.0067537534
-0.0084879277 -0.028224891 -0.0052171969
-0.0062933681 -0.029235184 -0.0065358565
0.0070544821 -0.029792491 -0.0063661472
0.0085401526 -0.029118851 -0.0051189191
-0.028121606 -0.024092615 -0.0048073572
-0.026849328 -0.024404963 -0.0061312323
-0.021985281 -0.025104811 -0.0058418014
-0.017234962 -0.026217351 -0.0064626383
-0.014457596 -0.027112108 -0.0053873342
-0.010114519 -0.027680736 -0.0062527568
-0.0077430569 -0.027895972 -0.007685903
0.010673409 -0.027403142 -0.0057060895
0.013597175 -0.027083553 -0.0055809747
0.018083246 -0.025675081 -0.0060465098
0.021269634 -0.02465274 -0.0059089065
0.024726607 -0.024204984 -0.0063802367
-0.029793445 -0.022316245 -0.0057932539
-0.027933303 -0.023912961 -0.0073891799
0.027067587 -0.023760056 -0.0069584809
0.030815588 -0.022111686 -0.0058462294
0.032289091 -0.020518133 -0.0051947068
-0.031168634 -0.018232968 -0.0060586231
0.032728303 -0.018414006 -0.0058367341
-0.031205729 -0.014286621 -0.0064110584
0.032836121 -0.013100102 -0.0056591616
-0.031275909 -0.010952161 -0.0062775444
0.032870814 -0.011054276 -0.0051036905
-0.031376809 -0.0065381057 -0.0061194478
0.032691736 -0.0065027401 -0.0056635081
-0.031438772 -0.0021911107 -0.0062487433
0.032631587 -0.0021075022 -0.005640734
-0.031632673 0.0021462922 -0.0057115699
0.032470092 0.0019244222 -0.006198368
-0.031628843 0.0054499051 -0.0060045067
0.032491773 0.006098045 -0.0056448453
-0.031561665 0.0094706286 -0.006737303
0.031977888 0.011014395 -0.0077368934
0.032532185 0.0096773691 -0.0049992078
-0.032088079 0.014870845 -0.0043613086
-0.031616639 0.014655126 -0.0068775881
0.031932395 0.014642033 -0.0077124387
0.03219609 0.013367829 -0.006547153
-0.032099769 0.018182533 -0.0048219296
-0.031752806 0.017990936 -0.0066195079
0.032208707 0.017283697 -0.0060962164
-0.032076363 0.021906605 -0.0054201037
-0.031759433 0.021622665 -0.0069348537
-0.0083342399 0.023505125 -0.004747042
-0.0069048982 0.023160838 -0.0062400885
-0.0027411554 0.022180943 -0.00649354
0.0022274691 0.022280617 -0.006596595
0.0068208151 0.022578161 -0.0067009758
0.008486459 0.022316553 -0.0047622249
0.031831767 0.022365661 -0.0075009349
0.032230746 0.022498487 -0.0054303091
-0.032182831 0.026951989 -0.005324591
-0.031818248 0.026432671 -0.0070410608
-0.020529004 0.027564866 -0.0059202253
-0.019076005 0.027011739 -0.0063987761
-0.013970056 0.027531222 -0.0062343366
-0.0086080534 0.025578769 -0.0049069892
-0.0069710948 0.025016559 -0.0062560057
0.0069086892 0.025382072 -0.0066900016
0.0086820526 0.025865626 -0.0053271535
0.015125487 0.027660564 -0.0065652155
0.018389029 0.027489331 -0.0055453619
0.020294612 0.027884835 -0.0055705081
0.031840213 0.027012715 -0.0070418986
0.032141428 0.027275056 -0.0054191421
-0.032966886 0.030019891 -0.0059210234
-0.031809755 0.029677927 -0.0073503652
-0.02302159 0.030474802 -0.0056197545
-0.012375674 0.028061867 -0.0056062564
-0.010731656 0.028091447 -0.0064548333
0.010129387 0.028296137 -0.0066741076
0.013173789 0.028338268 -0.0058194804
0.023031864 0.03073594 -0.0057857051
0.031824972 0.030769221 -0.0068891607
0.033081055 0.031276174 -0.0056056394
-0.033585191 0.033464152 -0.0058502532
-0.030083254 0.034953129 -0.0057090186
-0.024905261 0.032764964 -0.0057912199
-0.023629257 0.032886423 -0.0068842312
0.022885429 0.032643694 -0.0061010779
0.025453689 0.033750366 -0.0059487061
0.030255165 0.035350896 -0.0064287353
0.033530988 0.0342503 -0.0057979864
0.0273326 0.036415998 -0.005974757
0.029181737 0.036469083 -0.0061040907
-0.0062574628 -0.03641659 -0.0024251305
-0.0023947714 -0.036679674 -0.0021679448
0.001472347 -0.036682505 -0.0021456939
0.0063664708 -0.036431685 -0.0016139471
0.0083079496 -0.036097895 -0.00080565026
-0.0085215019 -0.034011409 -0.0012340416
-0.0074441056 -0.035048001 -0.0028737653
0.0076464987 -0.035691716 -0.0034893905
0.0091573633 -0.034429375 -0.0014622713
-0.0088853631 -0.029693212 -0.0017447979
-0.0077007366 -0.029895062 -0.0036367548
0.0095463395 -0.029714026 -0.0018273467
-0.028299309 -0.024149457 -0.001989224
-0.026483933 -0.024650849 -0.0020161092
-0.02181627 -0.025190795 -0.0020424074
-0.017922599 -0.026125608 -0.0025628081
-0.015029673 -0.026890947 -0.0027704483
-0.010531724 -0.027859556 -0.002271665
0.011319621 -0.027612818 -0.0022831562
0.012933422 -0.027416933 -0.0024884753
0.018768182 -0.025811438 -0.0018477732
0.02175351 -0.024672747 -0.0014917934
0.025243849 -0.024214299 -0.0023318769
-0.030206056 -0.022454346 -0.0016035817
0.02689247 -0.023946987 -0.0029572251
0.030790262 -0.022596607 -0.0020478547
0.032527249 -0.020705665 -0.0020173767
-0.03167209 -0.01853483 -0.0017715382
0.033110552 -0.018975576 -0.002182499
-0.031784836 -0.01417025 -0.0020844834
0.033228572 -0.013262053 -0.002452947
-0.031840082 -0.010295144 -0.0022950093
0.033146497 -0.010746926 -0.0026413428
-0.032006435 -0.0049827504 -0.0013571871
-0.031914003 -0.006552279 -0.0021606549
0.033072919 -0.0065220264 -0.002642869
-0.032053858 -0.0017373867 -0.0012468699
-0.031909972 -0.0021418347 -0.0031836927
0.03304876 -0.0021420245 -0.0018787353
-0.032114748 0.0018360112 -0.0014644933
-0.031953678 0.0010403676 -0.0034657354
0.032985449 0.0018298157 -0.0019584305
-0.032198172 0.0061798925 -0.0012285368
0.032914951 0.0059446227 -0.0019662876
-0.032252569 0.0096870326 -0.0014118465
0.032886457 0.0094930055 -0.0013674051
-0.03230666 0.013627965 -0.0014685977
0.032757796 0.012993087 -0.0023367859
-0.032342002 0.01768646 -0.0022905476
0.032688517 0.018273957 -0.0021036624
-0.032410488 0.021691086 -0.0026395004
-0.0090714833 0.022807585 -0.0018790526
-0.006728333 0.022679841 -0.0017383109
-0.0026301008 0.022461001 -0.0021818005
0.0024199912 0.022193305 -0.002169275
0.0061139427 0.022031074 -0.0021175013
0.0092506595 0.022082558 -0.0024086367
0.032642145 0.02286589 -0.0017068213
-0.032583769 0.02702173 -0.0017027791
-0.021168482 0.027508192 -0.0021656929
-0.017682327 0.027134025 -0.0016779141
-0.014729749 0.027607154 -0.0017188468
-0.0091970582 0.025158035 -0.0020996539
0.0095360028 0.025201589 -0.0021023743
0.0156898 0.027854102 -0.0022946333
0.017585102 0.027698303 -0.0029541296
0.0208029 0.0279069 -0.0021455206
0.032498237 0.026593128 -0.0024290942
-0.033498868 0.029878723 -0.0017702676
-0.02403933 0.02990558 -0.0020637526
-0.023679141 0.030150287 -0.0023644732
-0.012874234 0.028078659 -0.0014620678
-0.01181024 0.028061967 -0.0032663527
0.011538521 0.028201796 -0.0021641126
0.013448314 0.028440556 -0.0019808852
0.023388417 0.030752603 -0.0028631063
0.024194278 0.030710109 -0.0014989085
0.033106796 0.031173231 -0.0022734194
-0.03381009 0.033648573 -0.0020902792
-0.030658081 0.034681424 -0.0017124375
-0.025870411 0.032857917 -0.0022028307
-0.0236091 0.032249715 -0.0021868411
0.023344789 0.03234794 -0.0018513883
0.025792435 0.033603657 -0.0018341393
0.031252269 0.035441186 -0.0019665021
0.033962797 0.034359988 -0.0019740814
0.027709991 0.036230389 -0.0014824887
0.029172944 0.036586236 -0.0016716752
-0.0059177382 -0.036358289 0.0021634046
-0.0023178342 -0.036690298 0.0017425598
0.0026238756 -0.036697578 0.0017979016
0.006223232 -0.036470801 0.0024807006
0.0082154218 -0.036129843 0.00071223697
-0.0084365299 -0.033936188 0.00061031285
-0.0072486722 -0.03506282 0.0023881427
0.0076650227 -0.035311088 0.0032187854
0.0089123724 -0.034737337 0.0013633718
-0.0087384759 -0.029112175 0.0017995617
-0.0075860154 -0.030002994 0.0032744419
0.00789 -0.030461589 0.0038093382
0.009768188 -0.028910993 0.001987726
-0.02822114 -0.024173792 0.0023852824
-0.026365718 -0.024665071 0.0021053464
-0.022259209 -0.02515509 0.0017758416
-0.018177325 -0.026184918 0.0019941423
-0.013900809 -0.027308315 0.0020778524
-0.010549619 -0.027864601 0.0017654481
0.011115803 -0.027896075 0.0013663517
0.015228156 -0.026845351 0.0022049854
0.017741553 -0.026145015 0.0021556849
0.021778224 -0.024661368 0.002238865
0.025233056 -0.024206838 0.0026302752
-0.030101486 -0.02261591 0.0017333612
0.026912441 -0.023960782 0.0019270622
0.030451447 -0.022716215 0.0020326904
0.032532386 -0.020714249 0.0018631095
-0.031664617 -0.018254109 0.002071592
0.033185575 -0.018502809 0.0021621354
-0.031787224 -0.014222495 0.001769794
0.033309948 -0.014535408 0.001654114
-0.031834532 -0.010279032 0.0022634957
0.033167597 -0.009890913 0.002250232
-0.032010671 -0.0067547476 0.00026516919
-0.031932093 -0.0059828172 0.0022128399
0.033146515 -0.0057383124 0.0012169032
-0.032068845 -0.0021911736 0.00052785291
-0.031972706 -0.0020163821 0.002571143
0.033076365 -0.0019055008 0.0016674136
-0.032072503 0.0017672855 0.0022214837
0.032967974 0.0021134126 0.0023868221
-0.032148954 0.0059424364 0.0020575381
0.032894433 0.0055435477 0.0022442206
-0.032234732 0.0096157743 0.0014382481
0.032847296 0.0092889639 0.0022557196
-0.032315627 0.013743863 0.001456577
0.032768961 0.014097191 0.0019716723
-0.03241501 0.017485389 0.00093049911
0.032705788 0.018980868 0.0018626369
-0.032490395 0.022765111 0.0015991963
-0.0090929102 0.022374049 0.0016422642
-0.0060745119 0.022234751 0.0020840473
-0.0031923007 0.02281628 0.0027714588
0.0020473555 0.022495249 0.0023084485
0.0065241079 0.021967962 0.0025131968
0.0090698339 0.021994108 0.0024984833
0.032650657 0.022706682 0.0017097258
-0.032561298 0.027304336 0.0012624288
-0.021156365 0.027524071 0.0022387609
-0.017866636 0.027081918 0.0026923576
-0.014737456 0.027588317 0.0021691239
-0.0092008151 0.025357937 0.0019821068
0.009602055 0.025957264 0.0026069917
0.015642021 0.027815338 0.0025598076
0.017158508 0.027683891 0.0020733904
0.02068577 0.027866505 0.0020227062
0.032537915 0.026725987 0.0019903954
-0.03321236 0.029760165 0.0017214415
-0.024055498 0.029858707 0.0030230002
-0.02354604 0.030226264 0.0019820353
-0.012748539 0.028063994 0.0019881434
-0.011814035 0.028037213 0.0034850871
0.011569245 0.028189052 0.0021795845
0.013504259 0.02840361 0.0019929041
0.023115288 0.03052688 0.0026085046
0.024231138 0.030637231 0.0016593046
0.033076771 0.030994287 0.0018612026
-0.03366226 0.033688679 0.0024257272
-0.03094428 0.034452438 0.0025791319
-0.025659567 0.032711376 0.0022887059
-0.023650985 0.03222023 0.0019373756
0.023346838 0.032424077 0.00211082
0.025667679 0.033643924 0.0019680553
0.031154998 0.035632789 0.0018127969
0.033985697 0.034160953 0.0020643796
0.027739611 0.036229089 0.0015844115
0.029231815 0.036569811 0.0014739571
-0.0046458058 -0.036274265 0.0048454166
-0.0017662322 -0.036399592 0.0061721625
0.0018121783 -0.036410626 0.0063876184
0.0052294522 -0.03637404 0.0051677865
-0.005124724 -0.034131683 0.0063023786
-0.0015846583 -0.034007363 0.007730484
0.0014702489 -0.0348415 0.0077708364
0.0054736375 -0.034493189 0.0067338399
-0.0084001292 -0.028214414 0.0047499295
-0.0059940168 -0.029680116 0.0060659554
-0.0023136123 -0.031018794 0.0077790865
0.00095188658 -0.030854821 0.0078830738
0.0065176273 -0.029333614 0.00659111
0.0086399009 -0.028449651 0.0047052521
-0.028267883 -0.02406249 0.0051342025
-0.025663512 -0.024670742 0.0058548581
-0.021822089 -0.025118532 0.0060065007
-0.0171737 -0.026207935 0.006124245
-0.014113655 -0.027093878 0.0070051975
-0.010026999 -0.027707297 0.0060351412
-0.0075184875 -0.027947674 0.0075574429
0.0097082546 -0.027834594 0.0060065272
0.014384066 -0.027060697 0.0053280173
0.01764242 -0.025766207 0.00624213
0.022510352 -0.024500754 0.0058884956
0.025157511 -0.024142578 0.0061108354
-0.029664624 -0.022687597 0.0061509893
-0.027633052 -0.023989294 0.0079874303
0.027000446 -0.023838352 0.0062036267
0.030526672 -0.022311332 0.0060910597
0.032283921 -0.020524697 0.0051542684
-0.031172799 -0.018133415 0.0060361102
0.03266393 -0.018412309 0.0061771781
-0.03132781 -0.014293939 0.0057833954
0.032763824 -0.01441417 0.0060923751
-0.031216711 -0.010394721 0.0066785798
0.032565791 -0.0098989345 0.0066995579
-0.031433322 -0.0067050839 0.0059506628
0.032625366 -0.0061271712 0.0059535117
-0.031435668 -0.0022618533 0.0062965667
0.032533776 -0.0023171739 0.0061394055
-0.031529535 0.0019214751 0.0062323012
0.032421388 0.0016031846 0.0063800858
-0.031601671 0.0058889603 0.0062269885
0.032397185 0.0054601929 0.0062025362
-0.031510759 0.009239492 0.0069545167
0.032361533 0.008925233 0.006024051
-0.032093704 0.014932495 0.0044092294
-0.03173776 0.013941076 0.0063220579
0.031902023 0.012030407 0.0079700006
0.03236343 0.014146891 0.0055843517
-0.03206832 0.01844573 0.005018549
-0.031678468 0.019199597 0.0071629528
0.031911753 0.019261137 0.0073782224
0.032261409 0.018451214 0.0056676976
-0.032024167 0.022084445 0.0057199206
-0.031572226 0.022813711 0.0079136649
-0.0082402704 0.022965381 0.0046012388
-0.0064839181 0.022789549 0.0065952246
-0.0029960899 0.021979637 0.0068682241
0.0026628848 0.022699954 0.006161944
0.006827509 0.022428852 0.005951887
0.0082487902 0.022675222 0.0044044829
0.031827349 0.022372251 0.0075016893
0.032297518 0.02255269 0.0051170555
-0.032293774 0.02649189 0.0044659926
-0.031924479 0.025808163 0.00649491
-0.020755269 0.027593087 0.0052742846
-0.018852537 0.026902556 0.0062821666
-0.013825366 0.027423529 0.0063423431
-0.0086283442 0.026067788 0.004929516
-0.006339828 0.02549202 0.0070086909
0.0070727798 0.025739016 0.0068190903
0.0087891947 0.026008099 0.0047922479
0.014974757 0.027744167 0.0057152347
0.019011101 0.027528036 0.0061772824
0.02031854 0.027858624 0.0052816272
0.031806417 0.026951462 0.0072031594
0.032198194 0.025694693 0.00541416
-0.033005297 0.030064095 0.0062001492
-0.031841803 0.028994532 0.0073418352
-0.024011631 0.029839523 0.0040175132
-0.023004083 0.030203771 0.0060997931
-0.012283015 0.028049938 0.0047341455
-0.011012839 0.028057437 0.0063471743
0.010701755 0.028303985 0.0061998572
0.013138615 0.028328259 0.0053287325
0.022807831 0.031029485 0.006127289
0.031791486 0.030605743 0.0071833585
0.032953992 0.031209625 0.0055800225
-0.033571098 0.03342706 0.0057374057
-0.030748991 0.034464024 0.0055901031
-0.025251394 0.032723643 0.0060415026
-0.023373954 0.03254531 0.0066038836
0.023092868 0.032800149 0.0061751925
0.025215454 0.03351653 0.0055765337
0.031297863 0.035516348 0.0062191775
0.033660468 0.033993877 0.0060211574
0.027319375 0.036311649 0.0062085432
0.028944714 0.036553793 0.0055422536
-0.0020989394 -0.033880346 0.008048038
0.0032190646 -0.033544432 0.0080611678
0.0043225926 -0.033040568 0.0080588851
-0.0050221668 -0.028373335 0.0085259005
-0.0019162034 -0.029039208 0.0085916976
0.0024080789 -0.029194143 0.0086203665
0.0051325308 -0.028737068 0.0084820539
-0.025634632 -0.024352703 0.010395865
-0.021326266 -0.024989126 0.010249795
-0.016704984 -0.02599081 0.0087149125
-0.014669735 -0.02623 0.010401415
-0.010758186 -0.027250465 0.0097892107
-0.0067694979 -0.027715357 0.0097089866
-0.0019744977 -0.027854912 0.011051736
0.0024479749 -0.027872326 0.011122788
0.0057380088 -0.027820909 0.0099835386
0.0093135098 -0.027266754 0.010783684
0.014949002 -0.025800003 0.01102919
0.016709868 -0.025521174 0.0088469451
0.022086628 -0.024406934 0.0097313253
0.024164325 -0.024025157 0.011831587
-0.029234281 -0.021517497 0.010125743
-0.027204931 -0.023590634 0.010041403
0.026751734 -0.023618145 0.010173878
0.030022014 -0.021803532 0.0099542262
-0.030055823 -0.018505827 0.01020027
0.03151292 -0.018784678 0.010248334
0.032180503 -0.017942633 0.0084457481
-0.030387226 -0.013301202 0.0096297171
0.031457905 -0.01442401 0.010880636
0.032157477 -0.01401617 0.0087012211
-0.030126167 -0.0102437 0.010629437
0.031701334 -0.0096262107 0.0099215452
0.032246754 -0.010612948 0.0081558945
-0.030449385 -0.0063318908 0.0098666791
0.031719573 -0.0059446148 0.0096601937
0.032079399 -0.0060802163 0.0084764687
-0.030471167 -0.0018535811 0.010034449
0.03157109 -0.0016412515 0.0098627256
-0.030536098 0.0020759956 0.010095629
0.031504951 0.0016485202 0.0099104932
0.032026369 0.0011701442 0.0081934147
-0.030488245 0.0055956249 0.010421808
0.031467021 0.0052392604 0.0097978255
-0.030395439 0.0091825984 0.01085981
0.031272091 0.009152214 0.010207557
-0.030872075 0.013555869 0.0096016666
0.031335525 0.013777598 0.0097792372
-0.03093031 0.018589603 0.0098159863
0.0311535 0.018725883 0.010035847
-0.030924581 0.022313606 0.010053101
-0.0045908997 0.023072733 0.0084849214
-0.0018927143 0.023206411 0.0092349257
0.0019263205 0.023722151 0.0093264198
0.0046556271 0.023665147 0.008373064
0.031011682 0.022529038 0.010275122
-0.030971982 0.026495062 0.010110398
-0.020043824 0.027995965 0.0088076387
-0.017983867 0.027033173 0.0092176059
-0.013625864 0.027165694 0.0096893832
-0.0099396221 0.027632866 0.010628201
-0.0049778409 0.026060186 0.0086840959
-0.0020546541 0.025461245 0.0093131643
0.0021244648 0.025577916 0.0094504962
0.0050647152 0.026078174 0.0086385403
0.01110159 0.027672697 0.011182189
0.013673746 0.027604122 0.0098378379
0.018080588 0.02752937 0.009489595
0.031006034 0.026240543 0.010033974
-0.032652073 0.030236075 0.009453861
-0.031333957 0.029951489 0.010159001
-0.022004489 0.030117804 0.0096881902
-0.019811472 0.030335387 0.011722387
-0.0093154535 0.028070906 0.0090739597
-0.0066864272 0.028085012 0.010931346
-0.002154063 0.028068306 0.011813008
0.0026012792 0.028132379 0.011706789
0.0065428419 0.028235741 0.010486099
0.0095329676 0.028310679 0.009388688
0.012158155 0.028154725 0.0084233647
0.019139465 0.028475074 0.010799155
0.021815429 0.031112876 0.0094701396
0.031307876 0.030538207 0.0098864753
0.032754328 0.031392734 0.0099998396
-0.032988407 0.033225201 0.0092300959
-0.02971237 0.034651998 0.0098865787
-0.025269462 0.033267953 0.0096182358
-0.023089482 0.032657743 0.010223051
0.0224788 0.033219665 0.010525395
0.02493171 0.033635437 0.0096992338
0.030359197 0.035479445 0.010121351
0.032903384 0.033992164 0.0095407218
0.026745234 0.036440946 0.01051294
0.028556289 0.036448963 0.0093750469
-0.024560053 -0.024276096 0.013147534
-0.022327984 -0.024559006 0.014310176
-0.01805025 -0.025032718 0.014025354
-0.013101481 -0.02609125 0.012961425
-0.01046939 -0.026007982 0.014982935
-0.0054591736 -0.027131097 0.014690056
-0.002385634 -0.026900619 0.015081182
0.001737682 -0.027410092 0.013718634
0.006152858 -0.027212659 0.013579542
0.010412111 -0.026036721 0.01474411
0.01344926 -0.025596786 0.013037223
0.017507408 -0.02470322 0.013231863
0.021256855 -0.024232654 0.014108214
-0.028453486 -0.020641556 0.013304236
-0.0268487 -0.021683974 0.014750345
-0.023998858 -0.02394402 0.015895417
0.02309192 -0.023864791 0.015461504
0.026372809 -0.023054004 0.014092279
0.029030526 -0.021203628 0.013959474
-0.028729135 -0.018638259 0.01356284
-0.027707791 -0.019521084 0.015463581
0.029876772 -0.018716041 0.014287435
-0.028759787 -0.014118393 0.013792899
-0.027934197 -0.013802174 0.015468602
0.029704776 -0.014628427 0.014889644
-0.028975673 -0.0097001726 0.013529622
-0.027877877 -0.0098521337 0.015731998
0.030603968 -0.010079113 0.012834262
-0.028949993 -0.006124544 0.013689346
0.030395558 -0.0060909316 0.013142452
-0.028939668 -0.001902924 0.01385133
0.030221378 -0.0022010566 0.013382589
-0.028843809 0.0016540631 0.014240245
0.030143727 0.0022113838 0.013418762
-0.028995315 0.0055440576 0.014089429
0.029924551 0.0066319634 0.013722402
-0.028724724 0.0097759534 0.014770102
0.029848589 0.010336704 0.013754115
-0.029301306 0.014089614 0.013710199
0.029985767 0.013674308 0.013296918
-0.029485643 0.018511446 0.013565394
0.029926419 0.01767719 0.013303268
-0.029283827 0.022162041 0.014180596
0.029575113 0.022173356 0.013898714
-0.029750057 0.026277006 0.013308099
-0.016856186 0.027442761 0.012818522
-0.014109393 0.027273411 0.0144153
-0.0092844963 0.027229272 0.013531861
-0.0066487729 0.027547609 0.013644415
-0.0022054231 0.027559193 0.015131139
0.0021938861 0.027595213 0.015286705
0.0058540432 0.027500594 0.014760003
0.0098246764 0.02751426 0.013385982
0.014191136 0.027631465 0.014123417
0.016878469 0.027850064 0.012664774
0.029537674 0.02637789 0.013799345
-0.032109909 0.030864449 0.012628481
-0.030089226 0.030020816 0.013814986
-0.020666767 0.029971635 0.012875607
-0.01878853 0.030355964 0.014917959
-0.0050318665 0.028101981 0.012584702
-0.001835983 0.028155256 0.013244533
0.0019800325 0.028225861 0.013058212
0.005479584 0.028231151 0.012747269
0.015565368 0.028252652 0.015357073
0.018823246 0.03092582 0.014441636
0.020519657 0.030556627 0.013058672
0.030212762 0.030840838 0.01392038
0.032162234 0.031513285 0.012298062
-0.032339752 0.032759059 0.012174834
-0.029976785 0.033941887 0.013998964
-0.025646547 0.03462594 0.014016716
-0.021316746 0.03262585 0.014340903
-0.019780664 0.032609496 0.01566693
0.019140381 0.032975201 0.014982853
0.022042621 0.033618454 0.014117411
0.024722319 0.034988388 0.013144556
0.030485693 0.034603719 0.014354709
0.032076158 0.033582639 0.012592967
0.023602054 0.036233056 0.015385308
0.025300121 0.036430921 0.013928532
-0.021860218 -0.024266791 0.017378574
-0.017705508 -0.024807088 0.017351078
-0.01386644 -0.024994815 0.018049929
-0.0090970211 -0.025625695 0.016889384
-0.006163348 -0.026068222 0.017307714
-0.0022112196 -0.026385013 0.017411038
0.0017786694 -0.025956733 0.018238129
0.0062484625 -0.025939196 0.017368739
0.008783767 -0.02594116 0.016427966
0.013393766 -0.024691641 0.018336823
0.017350772 -0.024354286 0.018016934
0.020641599 -0.024061672 0.01715594
-0.025446964 -0.021680614 0.017876152
-0.022999322 -0.023198964 0.018924911
0.019860707 -0.023847127 0.019900665
0.022803513 -0.023347216 0.01871513
0.026012072 -0.021748265 0.017942986
0.028350683 -0.020591849 0.016244875
-0.026189303 -0.017991371 0.018111965
0.026877521 -0.018652799 0.019261982
0.028368974 -0.018168112 0.017136868
-0.026223103 -0.013943537 0.018226542
0.027057102 -0.013304574 0.019100934
0.028404167 -0.014834959 0.017164225
-0.026330482 -0.0098446533 0.018205022
0.026805466 -0.009178319 0.019365942
0.028969802 -0.010161249 0.016132247
-0.026893677 -0.0057457718 0.017437195
0.027492775 -0.0045603202 0.01832339
0.028758824 -0.0059671383 0.016368639
-0.026277591 -0.0023367032 0.018451069
0.027314913 -0.00049789838 0.018490475
0.028581679 -0.001926469 0.01655494
-0.026795112 0.0016523913 0.017880069
0.027178939 0.0034715419 0.01860721
0.028430752 0.0020260937 0.016691815
-0.026772399 0.0054094386 0.017985923
0.027062036 0.0073874607 0.01866753
0.0283169 0.0058942018 0.016787702
-0.026688695 0.0095118033 0.01820525
0.027014516 0.011259511 0.018662298
0.028246183 0.0096997228 0.016803687
-0.028151834 0.015339362 0.016054003
-0.026397582 0.014125522 0.018778101
0.027034625 0.014996311 0.018546436
0.028256714 0.01341913 0.016686764
-0.028041784 0.017143758 0.016333548
-0.026607936 0.018603124 0.018573258
0.0267085 0.018302338 0.018884949
0.028331922 0.017676214 0.016415464
-0.027340295 0.022056937 0.01766449
0.026606657 0.0221221 0.018911429
0.028430754 0.022202509 0.01610784
-0.028404653 0.026343619 0.016032901
-0.026770359 0.026568681 0.018633734
-0.012923193 0.027581928 0.017010083
-0.0098752026 0.027161464 0.017933343
-0.006317962 0.027022066 0.018825481
-0.0018420168 0.027260585 0.017861689
0.0023692322 0.027306614 0.017600365
0.0060016941 0.027167328 0.019053685
0.0096968804 0.027365912 0.017888159
0.012889647 0.027742939 0.016651047
0.02667198 0.026098125 0.018723825
0.028329015 0.026131455 0.016152952
-0.028916918 0.030129356 0.017147189
-0.027030345 0.029766668 0.018619716
-0.01709811 0.030239271 0.017107604
-0.014548176 0.03045951 0.018969702
-0.011759007 0.030673467 0.01982026
0.011627027 0.030664794 0.019877587
0.014099169 0.03088282 0.019029614
0.01687797 0.030754017 0.017155079
0.027119169 0.030371724 0.018246867
0.028745074 0.030807748 0.017144144
-0.029095268 0.033562079 0.017587693
-0.025994631 0.03430634 0.018190449
-0.021372117 0.033734176 0.017494017
-0.018466732 0.032627095 0.017838914
-0.015109291 0.032683011 0.019385232
0.014092865 0.032511242 0.019121133
0.017981028 0.033263288 0.018059235
0.021233281 0.034486596 0.017302176
0.026282853 0.03519896 0.018326795
0.029250236 0.034382634 0.017395964
0.019995147 0.036205251 0.019957216
0.022613114 0.036342129 0.017759955
0.024730871 0.036363155 0.016665293
