# .PCD v0.7 - Point Cloud Data file format
VERSION 0.7
FIELDS x y z
SIZE 4 4 4
TYPE F F F
COUNT 1 1 1
WIDTH 1299
HEIGHT 1
VIEWPOINT 0 0 0 1 0 0 0
POINTS 1299
DATA ascii
-0.01109841 -0.10196569 0.007800973
-0.0098717492 -0.10034658 0.0055492497
-0.038971227 -0.096948057 0.0070112133
-0.010872037 -0.097990721 0.0083129695
-0.0096417572 -0.096906662 0.0059913797
-0.038245145 -0.093723863 0.0072437171
-0.010589732 -0.092505127 0.0085269986
-0.0095745781 -0.09237051 0.0062697884
-0.038090695 -0.087144032 0.0076289107
-0.010627322 -0.087189421 0.0089851161
-0.0094586443 -0.086651623 0.0067461226
-0.040854886 -0.081733838 0.0073311031
-0.039132994 -0.084143914 0.007792681
-0.0078727482 -0.08372651 0.0079805925
-0.0020945526 -0.0804924 0.0060552657
-0.043557595 -0.077770732 0.0072870492
-0.001131036 -0.079414777 0.0085454155
0.001679452 -0.078056075 0.0073907343
0.0068887295 -0.075729951 0.0068229586
-0.046856757 -0.071915276 0.008074875
0.009156649 -0.074636102 0.008514436
0.012943605 -0.072811127 0.0069030067
0.016284911 -0.070902608 0.0084427726
-0.049175728 -0.067106262 0.0078752711
0.019088078 -0.069334224 0.0077047795
0.022650303 -0.067338869 0.0071220445
0.026209418 -0.065409064 0.0071829055
-0.050940227 -0.063045718 0.008083187
0.028725658 -0.064092316 0.0072069741
0.031668849 -0.062546693 0.0070693898
0.035733867 -0.060455203 0.0063246773
-0.05299275 -0.057160158 0.0087566096
0.03784563 -0.059117172 0.0079872943
0.042174771 -0.056929588 0.0077609899
0.045551684 -0.055243839 0.0066979676
-0.054182284 -0.053399555 0.0081318226
0.047927897 -0.053133707 0.0081319865
0.050605893 -0.050364636 0.0068825302
-0.055509761 -0.047680039 0.007721737
0.052311871 -0.047430824 0.0073545254
-0.055650949 -0.043105908 0.0079162559
0.053808041 -0.042958912 0.0069599166
-0.055600315 -0.035530377 0.0074840132
0.054212946 -0.036397081 0.0077030417
0.054221094 -0.033504155 0.00846643
-0.05550988 -0.029883111 0.0077665211
0.054202065 -0.027893936 0.0065848804
-0.055421155 -0.024218354 0.007472524
0.054165173 -0.022862943 0.0071826768
-0.05530763 -0.016610082 0.0076003373
0.054249063 -0.016703077 0.0079155723
-0.055268753 -0.01353333 0.007539582
0.054469269 -0.013257616 0.0074022603
-0.055202093 -0.0070710718 0.0075865984
0.05420896 -0.008208611 0.0077372845
-0.055189643 -0.0025430727 0.0071969437
0.054113515 -0.0017092237 0.0083316034
-0.055182289 0.0013916303 0.0075613428
0.054276198 0.0032246702 0.0082814796
-0.05521787 0.0083853258 0.0070695751
0.054499689 0.007679469 0.0084793055
0.055027038 0.0074898689 0.005142591
-0.055205323 0.013268441 0.0081290659
0.05436733 0.011230905 0.0081205433
-0.055232923 0.017476887 0.0074112494
0.054416027 0.017495757 0.008006406
-0.055200402 0.024455864 0.0065659164
0.054480482 0.021472739 0.0080450932
-0.055093847 0.028445672 0.0078827683
0.054701556 0.028262356 0.0086053582
0.055156507 0.028046483 0.0056937709
-0.0550736 0.032129597 0.0082102139
0.054592479 0.031948347 0.0088044852
-0.055043824 0.038020074 0.0071542673
-0.054984562 0.039004158 0.0082691973
0.054640912 0.036863904 0.0070145843
-0.055059165 0.043568794 0.005344877
-0.054920137 0.041263431 0.0090043126
0.054548334 0.043079559 0.0075459382
-0.054932535 0.048444919 0.0070522493
0.05466909 0.048138164 0.0080465768
0.055081788 0.048707381 0.0056795245
-0.054846827 0.053466652 0.0078027407
0.0546299 0.051304869 0.0086190384
0.055036366 0.050230294 0.0053259665
-0.054812238 0.057592537 0.0076393741
0.054652978 0.058108125 0.0078976341
0.055021837 0.056268983 0.005153338
-0.054835703 0.06233836 0.0071194866
0.054654665 0.062649928 0.0084103532
0.055003233 0.062971473 0.0059345309
-0.054909043 0.068514004 0.0059018135
0.054835778 0.068264879 0.0088061094
0.055093952 0.068969175 0.0077966889
-0.05482642 0.072144702 0.0072687827
0.054815691 0.073090382 0.0089915544
0.055137515 0.071734689 0.0070667779
-0.05471772 0.076810539 0.0072783008
0.054854833 0.07845635 0.0087944996
0.055191513 0.07805901 0.0060625863
-0.054603063 0.082389176 0.0075671747
0.054876864 0.081897646 0.009264037
0.055164691 0.082972258 0.0072722584
-0.054357294 0.087721251 0.0082810614
0.054959293 0.085983701 0.0094908439
0.055257779 0.088706553 0.0082190316
-0.054330047 0.093232967 0.0069485605
0.054971606 0.092396639 0.0095021995
0.055402502 0.091039412 0.0075422488
-0.053813059 0.098213814 0.0092672845
0.054820228 0.097347893 0.0078360653
-0.053581689 0.10367742 0.006618083
0.05450673 0.10228667 0.0080754673
-0.052571129 0.10849791 0.0071659642
-0.0071394271 0.10991443 0.0071559786
-0.0027509802 0.10977899 0.0069153863
0.0017907638 0.1097554 0.0074424557
0.0074317623 0.10971359 0.0075116497
0.01277901 0.10980271 0.0081612645
0.017212441 0.10984433 0.0082828095
0.022166777 0.1099026 0.0065684244
0.054223713 0.10827482 0.0070363297
-0.05111932 0.11076175 0.0070449831
-0.047582522 0.11329279 0.0074565033
-0.042620268 0.11462786 0.007690852
-0.037531529 0.11363031 0.0077660866
-0.03308586 0.11183184 0.0080383783
-0.028412499 0.11148687 0.0068092309
-0.022487512 0.11097619 0.0071363053
-0.016044382 0.11047205 0.0075819879
-0.01219313 0.11025689 0.0081860283
-0.0086320965 0.11012603 0.0088130841
-0.00055816659 0.11010311 0.0095467642
0.00018524611 0.11003472 0.0092349118
0.015570002 0.11003588 0.0099933706
0.02360598 0.11007396 0.008070155
0.027161904 0.11019897 0.0063897921
0.032003533 0.11040185 0.0070520788
0.038612764 0.11087011 0.0087295659
0.041734513 0.1132688 0.0076058628
0.047904018 0.11330061 0.0070574223
0.052309781 0.11116269 0.0068245186
-0.040898815 0.1150002 0.0099209398
-0.032470487 -0.11510176 0.011598398
-0.029331932 -0.11506128 0.012832352
-0.035388738 -0.11307844 0.010536861
-0.03293854 -0.11409293 0.012365617
-0.027830619 -0.11448415 0.0143827
-0.021867985 -0.11459672 0.014382342
-0.017476184 -0.11417741 0.013269397
-0.014218304 -0.11358892 0.011253485
-0.035619799 -0.10734747 0.010952289
-0.033099674 -0.10717663 0.013200205
-0.029773194 -0.10900964 0.014924771
-0.016616445 -0.10776717 0.013693326
-0.013434719 -0.10726229 0.011142251
-0.035514262 -0.10245632 0.011375417
-0.032969683 -0.10294376 0.013543561
-0.016440358 -0.10268213 0.013675085
-0.013514432 -0.10224374 0.011279264
-0.036259368 -0.09668646 0.011628364
-0.033320326 -0.096815594 0.014137953
-0.016159087 -0.097067855 0.014044204
-0.013847523 -0.098092444 0.012074237
-0.035860859 -0.094130442 0.011172665
-0.033237748 -0.093647741 0.013430309
-0.016075308 -0.092242859 0.0143047
-0.012872748 -0.092865802 0.011649811
-0.035923891 -0.08666534 0.011539763
-0.033862341 -0.087203287 0.013291891
-0.015969845 -0.087774463 0.014563126
-0.012810445 -0.086616978 0.012446797
-0.04047076 -0.080673948 0.011800152
-0.03789879 -0.082820646 0.013086531
-0.034727089 -0.084779814 0.014271434
-0.011042157 -0.084521897 0.01336627
-0.0082154088 -0.083155245 0.011648057
-0.0049495823 -0.081123695 0.010871344
-0.041584134 -0.078071266 0.013889189
-0.0021339701 -0.078570709 0.013313763
0.0024856362 -0.076203384 0.012974381
0.0061487723 -0.075287655 0.011018044
-0.046055321 -0.071547531 0.012855264
0.0085320221 -0.074318498 0.012832478
0.012702573 -0.072573252 0.012456622
0.01670251 -0.07040295 0.011138481
-0.048598882 -0.066588737 0.012730643
0.018123794 -0.069443963 0.012672861
0.023590315 -0.066464528 0.013033894
0.025478009 -0.065428808 0.012643267
-0.05076262 -0.062334284 0.011892301
-0.049816325 -0.064693198 0.011703333
0.028332772 -0.063827448 0.012513212
0.031792533 -0.06190611 0.012421004
-0.052553628 -0.05702059 0.012810447
0.034937717 -0.059974946 0.014167084
0.038010001 -0.058549523 0.012345628
0.042292845 -0.056194507 0.012969163
-0.053795949 -0.053251769 0.012558377
0.044782825 -0.054903682 0.012605017
0.047181852 -0.053206164 0.011962522
0.050096184 -0.050621878 0.010466902
-0.055137981 -0.047831077 0.012777954
-0.054560557 -0.049877472 0.014506139
0.051805191 -0.047120359 0.01258926
-0.055369847 -0.041134495 0.012039957
0.053101048 -0.042726167 0.013012547
-0.055315122 -0.035099715 0.011917856
0.053795021 -0.036238026 0.011993394
-0.054978937 -0.034468565 0.014911424
0.053878821 -0.033982102 0.01148908
-0.05514751 -0.029116338 0.013011685
0.05346955 -0.027152333 0.012566224
-0.055158213 -0.023541156 0.012015801
0.05344703 -0.021837307 0.012338442
-0.055127826 -0.01733329 0.011443369
-0.054861121 -0.01674979 0.014531279
0.053523354 -0.017085854 0.012307811
-0.055125818 -0.013377219 0.010967281
-0.054859295 -0.01196957 0.014043453
0.053802453 -0.013102598 0.011508221
-0.055078834 -0.00623341 0.010583517
-0.054879226 -0.0081030689 0.013356564
0.053515013 -0.0081059029 0.012018197
-0.055038661 -0.0048617185 0.010984088
-0.054906234 -0.0018936056 0.012323522
0.053491082 -0.0017423297 0.012163028
-0.055009425 0.0036367706 0.011015618
-0.054803722 0.002312853 0.013316335
0.053378671 0.0024703303 0.013114087
-0.054703608 0.007573599 0.014016693
0.053741336 0.0083009209 0.011887305
-0.055044379 0.013121098 0.010632233
-0.054869115 0.012966719 0.012529439
0.053614091 0.011952165 0.012190208
-0.055068366 0.015917577 0.010327064
-0.05491988 0.017255994 0.012012984
0.053560913 0.017500754 0.012518796
-0.054975163 0.02275699 0.010824302
0.053951297 0.023111301 0.011478938
-0.054600928 0.028096734 0.013717644
0.054197967 0.027575277 0.011363152
-0.054606717 0.032658 0.013462885
0.054012936 0.031339452 0.012104194
-0.054592438 0.036845624 0.013107601
0.053767033 0.037579373 0.012400816
-0.054556184 0.042498499 0.012946703
0.053711243 0.042137377 0.012697397
-0.054391015 0.047667503 0.013933592
0.054058377 0.047988873 0.011600722
-0.054499403 0.052833989 0.012490424
0.053966783 0.052043442 0.012410036
-0.05455371 0.056907799 0.011650862
0.053791638 0.057151064 0.01344696
-0.054506052 0.061890662 0.012248972
0.053969078 0.062269621 0.012732873
-0.054424442 0.066821881 0.013350187
0.054087128 0.067070112 0.012689508
-0.054366738 0.07394556 0.01336378
0.054212898 0.073551334 0.012407464
-0.054321617 0.076130934 0.01350991
0.054546785 0.07823284 0.0108889
-0.054226045 0.082852535 0.013019455
0.054335099 0.083000928 0.012790542
-0.054010034 0.088246413 0.013355712
0.054631699 0.088226743 0.011846796
-0.053893581 0.091542386 0.013428883
0.054616831 0.091915622 0.011923986
-0.053716045 0.096093543 0.013303337
0.054422297 0.097156577 0.012335338
-0.053402115 0.10096877 0.011737674
0.05423848 0.10192599 0.01256334
-0.052331593 0.10855649 0.012456747
0.054170731 0.10903814 0.012928328
-0.051047552 0.11088439 0.012606352
-0.04759841 0.11355538 0.012856887
-0.044071224 0.1148588 0.012312181
-0.036485899 0.11365013 0.012502172
-0.033215646 0.11231364 0.013921494
-0.027518431 0.1117861 0.013915641
-0.022596968 0.11161606 0.014437708
-0.017693037 0.11125522 0.013790762
-0.011842684 0.11097167 0.013358161
-0.0080169998 0.11071537 0.012562785
-0.0018069313 0.11078843 0.013215719
0.0025707611 0.11090749 0.013842385
0.0063816393 0.11093882 0.014179363
0.012497287 0.11078635 0.013768551
0.017174598 0.11077674 0.013758597
0.022333592 0.11087523 0.013524194
0.028112154 0.11150578 0.013867173
0.032140009 0.11122597 0.013391706
0.038032517 0.11173271 0.012411124
0.040939096 0.11380806 0.012670395
0.048253126 0.11361836 0.012873584
0.053023543 0.11083347 0.01279686
-0.041953318 0.1151125 0.012231752
-0.038804457 0.1151543 0.013266547
-0.026520822 -0.11351984 0.015383841
-0.022761447 -0.11393004 0.015313635
-0.030352877 -0.10507728 0.015127019
-0.02751671 -0.10692842 0.015743976
-0.022801571 -0.107985 0.01586565
-0.019732593 -0.10780868 0.01522985
-0.030159671 -0.10246539 0.015192872
-0.02703215 -0.10237803 0.016067214
-0.02282656 -0.1021239 0.016076146
-0.019679543 -0.10172506 0.015362673
-0.030382598 -0.09668079 0.015615418
-0.027295901 -0.096999139 0.016446708
-0.02265445 -0.097354174 0.016429195
-0.019272577 -0.097311087 0.015531828
-0.030118436 -0.093423441 0.01526684
-0.027511859 -0.093954735 0.016033474
-0.022919402 -0.093197674 0.016471829
-0.018805077 -0.093215704 0.01558668
-0.030927075 -0.086694621 0.015455692
-0.027472395 -0.08688952 0.016585743
-0.022135856 -0.087092005 0.016893648
-0.017527439 -0.087089047 0.015678288
-0.014292494 -0.085215613 0.015214423
-0.036904465 -0.081166223 0.016513128
-0.032528494 -0.082797654 0.017692983
-0.02806217 -0.083420731 0.018536627
-0.022153107 -0.083650902 0.018825289
-0.017585712 -0.083221838 0.018691987
-0.012190104 -0.082957916 0.017199853
-0.0080156131 -0.081012279 0.017517678
-0.041308451 -0.076757684 0.016334144
-0.037834451 -0.078331195 0.018360168
-0.034939252 -0.078994617 0.019783817
-0.0069196685 -0.079619154 0.018691847
-0.0025311685 -0.077677667 0.017318357
0.0023997019 -0.075627081 0.018567553
-0.045754127 -0.070054233 0.01663918
-0.043769199 -0.072174609 0.01763596
0.0047662621 -0.074903101 0.018757844
0.0075231371 -0.073929965 0.018567974
0.012281407 -0.071851842 0.017768428
0.015628247 -0.070330903 0.016077382
-0.047087383 -0.066951178 0.017473403
-0.044816121 -0.069268793 0.019117935
0.018262897 -0.068482049 0.018240551
0.022665627 -0.066217549 0.017638087
-0.050134569 -0.061856549 0.016149618
-0.048534032 -0.063400045 0.018451044
0.024617583 -0.064814344 0.019327337
0.027488409 -0.063625552 0.017005544
0.031768687 -0.06121761 0.017390588
-0.051644318 -0.05677798 0.017826451
0.03403632 -0.059585888 0.018973028
0.037688058 -0.058003996 0.017315226
0.041094907 -0.056153528 0.016770672
-0.053137943 -0.052842386 0.017368957
0.043823387 -0.054028627 0.018327085
0.046662062 -0.052099146 0.017495409
-0.055033058 -0.045097604 0.015574546
-0.054458804 -0.047276046 0.017969528
0.049193133 -0.048203774 0.019333348
0.050950319 -0.046734653 0.017116852
-0.055034246 -0.042068861 0.015393833
-0.054518089 -0.043670461 0.018888738
0.052136663 -0.042507172 0.017739801
-0.055030897 -0.037525453 0.015124558
-0.05449298 -0.037140161 0.018666307
0.052761205 -0.037607007 0.01727519
-0.054427858 -0.033023324 0.018889539
0.05239965 -0.03159247 0.018001281
-0.054356091 -0.027247902 0.018896535
0.052172277 -0.028183572 0.018509589
-0.054341443 -0.021516029 0.01862032
0.052401297 -0.022454917 0.017551014
-0.054414585 -0.017492142 0.018037243
0.052382164 -0.017435165 0.01748202
-0.054364495 -0.012466688 0.017884493
0.052406855 -0.012787738 0.017248923
-0.054238703 -0.00770263 0.018217551
0.052276418 -0.0077365241 0.017570291
-0.054290455 -0.0029608447 0.017666524
0.052378569 -0.0021688826 0.017250678
-0.054101735 0.0019808656 0.018259954
0.052183405 0.0028196301 0.017933391
-0.054057784 0.007488484 0.018282942
0.052155193 0.007511945 0.01809272
-0.054306097 0.012196184 0.016853932
0.052448161 0.012737821 0.017265132
-0.054119118 0.017908167 0.017666057
0.052196182 0.017279888 0.017990593
-0.054058574 0.022482647 0.017911034
0.052414134 0.022331424 0.017618798
-0.054051898 0.027699092 0.017579779
0.052606195 0.027091458 0.017416682
-0.054034352 0.031953964 0.017363392
0.052406766 0.032962751 0.018148337
-0.054000031 0.037329305 0.017266927
0.052607704 0.036886193 0.017648464
-0.053735916 0.04288489 0.01850336
0.052288599 0.042515237 0.018568465
-0.053826023 0.04793597 0.017800542
0.052551862 0.047530454 0.017884405
-0.053643797 0.052334286 0.018665394
0.052606355 0.05274196 0.017855121
-0.05378367 0.056766607 0.017908711
0.052808229 0.056559499 0.017383689
-0.053666394 0.062769428 0.018386882
0.052779194 0.062980227 0.01765571
-0.053749755 0.067520812 0.017946033
0.052947037 0.068416744 0.017460067
-0.053804118 0.072424762 0.017238252
0.052810788 0.073716745 0.018025244
-0.053740963 0.077621356 0.017343031
0.052655905 0.079107694 0.018625664
-0.053672682 0.082699306 0.017434258
0.052758332 0.084118821 0.018716233
-0.053412918 0.087614357 0.018207576
0.053339932 0.087461211 0.017313568
-0.053277873 0.091646284 0.01814761
0.053202927 0.092437886 0.017922441
-0.052929595 0.098011039 0.018435674
0.053200927 0.097457252 0.017941663
-0.05259582 0.1028968 0.018822584
0.053369306 0.1020636 0.017538708
-0.051997419 0.10802589 0.018140929
0.053213175 0.10891131 0.017572775
-0.050701533 0.11092096 0.017492423
-0.04816591 0.11308108 0.017433669
-0.044536285 0.11486745 0.017184092
-0.035730828 0.11441097 0.015717801
-0.03336243 0.11382514 0.015935546
-0.027099477 0.11419128 0.016912615
-0.022091312 0.11370721 0.016982792
-0.01821699 0.11336959 0.017016688
-0.012330901 0.11331669 0.01740662
-0.0074527487 0.11286559 0.017151462
-0.0015249749 0.11224735 0.016479095
0.002370026 0.11229381 0.016587306
0.0071863984 0.11273723 0.017215431
0.011721767 0.11316534 0.017765896
0.017652573 0.11317971 0.016975513
0.022489754 0.11342757 0.016529884
0.027797623 0.11392892 0.016523262
0.031937655 0.11420175 0.017064599
0.037313644 0.11420982 0.016890483
0.04167622 0.11439888 0.017438257
0.047744587 0.11361785 0.017306626
0.052231152 0.11084477 0.017634813
-0.0417035 0.11531609 0.016713988
-0.037381902 0.11532481 0.017111128
-0.033621263 0.11518784 0.018012976
-0.028088611 0.1151613 0.018399552
-0.023295723 0.11507526 0.018934013
-0.032476805 -0.080059424 0.020000167
-0.026453173 -0.080568776 0.020662051
-0.022628119 -0.081112139 0.020615112
-0.018125458 -0.080830008 0.020863565
-0.011107135 -0.080360487 0.020311629
-0.036589406 -0.076450124 0.020736406
-0.032450255 -0.076453932 0.022214474
-0.027625499 -0.077313446 0.022255059
-0.021966752 -0.077594124 0.02260014
-0.017324969 -0.078481063 0.022406036
-0.012777025 -0.077425882 0.023115575
-0.0076009999 -0.076954618 0.022674749
-0.0029848933 -0.07579831 0.022447834
0.0017262415 -0.075341769 0.021164436
-0.041564297 -0.071678624 0.020724492
-0.036045518 -0.072008431 0.023654202
-0.033269454 -0.072994471 0.023779914
-0.027006777 -0.073466644 0.024410706
-0.023441857 -0.073946051 0.024550075
-0.017546691 -0.074330039 0.024577243
-0.012505208 -0.074307233 0.024732562
-0.0072956071 -0.074399441 0.024549996
-0.0024701888 -0.074131377 0.024031568
0.0033990238 -0.073805436 0.022269024
0.007113643 -0.0729881 0.021241631
0.011485944 -0.070644654 0.021455828
-0.045743126 -0.066087395 0.020627458
-0.042084299 -0.06737522 0.022964085
-0.037199095 -0.069059372 0.024619555
-0.034661029 -0.069574758 0.02483771
0.0090825902 -0.069332317 0.024688359
0.013140156 -0.068587288 0.023352727
0.017491665 -0.067069463 0.022418436
0.021851156 -0.065697178 0.020979239
-0.046968829 -0.061705142 0.022143463
-0.043258581 -0.063372269 0.024433183
0.019425556 -0.064412981 0.024644896
0.023067195 -0.064061888 0.022671569
0.027205944 -0.062079992 0.022074802
0.030819796 -0.060630679 0.021009326
-0.050454386 -0.056313448 0.021149542
-0.048262075 -0.057252012 0.023427866
0.029388072 -0.059272379 0.024248526
0.032812983 -0.058271799 0.022694949
0.036890674 -0.056541957 0.021607034
0.040502556 -0.05528789 0.020115839
-0.051435318 -0.052380048 0.022163156
-0.049595416 -0.053318013 0.024133766
0.038514879 -0.053857855 0.023495456
0.041680757 -0.052341312 0.022681886
0.045765113 -0.05069311 0.020891232
-0.052808478 -0.046763867 0.022586619
0.043575794 -0.049343731 0.024224298
0.047758553 -0.047348827 0.021875113
0.050251931 -0.045023866 0.020423334
-0.053036351 -0.043446086 0.022612153
0.048605818 -0.042322483 0.023811635
0.050655253 -0.04256634 0.021118827
-0.052933823 -0.03738451 0.022541117
0.048852008 -0.037660658 0.023946099
0.050954375 -0.037700769 0.021413563
-0.053183015 -0.032770507 0.021990346
0.048811957 -0.032417774 0.023874886
0.050917152 -0.032352451 0.021268331
-0.052818853 -0.027576691 0.022490688
0.048693188 -0.027630784 0.023922127
0.050818089 -0.028115407 0.021343915
-0.05250835 -0.022244168 0.022872603
0.048491023 -0.022343587 0.024082277
0.050817624 -0.022576895 0.021285012
-0.052392554 -0.017404279 0.022982543
0.048942097 -0.017857932 0.023532279
0.050762169 -0.017453717 0.02116969
-0.052855611 -0.012423157 0.022135669
0.048603103 -0.013142277 0.023803102
0.050723761 -0.012745813 0.021198383
-0.05267461 -0.0074907187 0.022315668
0.048432667 -0.0092154229 0.02394888
0.050702259 -0.0056782789 0.021010228
-0.052549891 -0.0021617173 0.022355581
0.048815936 -0.002845708 0.023466989
0.05057019 -0.0013325708 0.021311788
-0.052339066 0.0027436398 0.022484487
0.048795898 0.003071801 0.02347995
0.050620187 0.0019159075 0.021178953
-0.052148718 0.0074082725 0.022783114
0.04854133 0.0079224324 0.02371921
0.050639663 0.0071710818 0.02110954
-0.052176304 0.012159182 0.02259255
0.048682638 0.01276684 0.023613185
0.050811388 0.01235411 0.020885281
-0.052326858 0.018246101 0.022226695
0.048685797 0.017609444 0.023618493
0.050745536 0.018520616 0.021055458
-0.05184776 0.022758368 0.022933586
0.048679151 0.02138629 0.023652336
0.050668586 0.022046708 0.021219142
-0.052054152 0.027927093 0.022557311
0.048516396 0.027537514 0.023824591
0.050739061 0.027146611 0.021160169
-0.05206522 0.032470684 0.022457559
0.048612796 0.032179438 0.023759738
0.050480343 0.032442205 0.02161039
-0.051816821 0.037278246 0.022743771
0.048821229 0.037133422 0.023600979
0.050898172 0.037017789 0.021060899
-0.051753573 0.042735118 0.022829533
0.048710994 0.042604178 0.023752851
0.050914031 0.042849753 0.021133976
-0.051381942 0.047868345 0.023247417
0.048671436 0.046769217 0.02376681
0.050952125 0.046938993 0.021099238
-0.052129466 0.052479573 0.022151833
-0.049980462 0.050801821 0.024932405
0.048311632 0.05287328 0.024106443
0.051231969 0.052892674 0.020719999
-0.052133311 0.056701433 0.02207174
-0.052206833 0.063059025 0.022086347
0.048541233 0.063698351 0.023914414
0.051068425 0.063166447 0.02105666
-0.052013025 0.067379884 0.022224825
-0.049865194 0.068972379 0.024966234
-0.05197113 0.072502352 0.022229129
-0.049881615 0.072549999 0.024931587
0.048744101 0.07349848 0.023788774
0.050971381 0.073445626 0.021291511
-0.051971488 0.077628285 0.022196058
-0.049789779 0.076314524 0.024990279
0.048758022 0.079752855 0.023868894
0.050963659 0.079441108 0.0214376
-0.05150206 0.082290418 0.022792805
-0.049841765 0.081111558 0.024926824
0.048747528 0.082891963 0.023886902
0.051974412 0.084654458 0.020155923
-0.051388822 0.087983772 0.022853153
-0.04987983 0.088619992 0.024841778
0.04871507 0.086678877 0.023896636
0.050787777 0.086705528 0.021815302
-0.051559113 0.091940425 0.022486122
-0.049849182 0.093489826 0.024804123
0.048933636 0.093074977 0.023771683
0.051432371 0.092805944 0.02108907
-0.051644173 0.098390885 0.021993693
-0.049570017 0.09863691 0.02488368
0.048359085 0.097608723 0.024272844
0.050996132 0.097357929 0.021724558
-0.05165568 0.10226832 0.021767536
-0.049776781 0.10224938 0.024619753
0.048686925 0.10260879 0.024138991
0.05103929 0.10265839 0.021807397
-0.051085439 0.10772126 0.021884143
-0.049439494 0.10801413 0.024183355
0.048783422 0.10768708 0.023696588
0.051158253 0.1076652 0.021418594
-0.05036607 0.11051708 0.020330282
-0.047387607 0.11218125 0.022313213
-0.042837352 0.11403228 0.02330827
-0.03836162 0.11461587 0.023966983
-0.031684171 0.11482183 0.024117157
-0.026606062 0.11484206 0.024242755
-0.022226483 0.11476905 0.023687374
-0.017979437 0.11461526 0.022465158
-0.012312014 0.11411548 0.022930553
-0.0076733856 0.11369709 0.023641318
-0.0016327956 0.11352131 0.022814535
0.002551175 0.11345256 0.022877971
0.0077608256 0.1134022 0.023346242
0.012273734 0.11351169 0.023314213
0.017340392 0.11368039 0.023178034
0.022534633 0.11399803 0.022791669
0.027923405 0.11432622 0.022086388
0.032866828 0.11408193 0.022586597
0.037049919 0.1138666 0.022524511
0.043195933 0.1131096 0.022788176
0.047438543 0.11186486 0.022396619
0.0506952 0.11078755 0.020715561
-0.04103779 0.11515957 0.021215137
-0.038577288 0.11529782 0.021548871
-0.031960517 0.1152721 0.021976098
-0.02727627 0.11523794 0.02168379
-0.023394838 0.11512057 0.021386584
-0.030153839 -0.07094723 0.025245907
-0.026363466 -0.071449257 0.025358804
-0.023462616 -0.071492746 0.025589222
-0.017014118 -0.071494989 0.026041284
-0.013418076 -0.071520403 0.026102917
-0.0081601078 -0.071709529 0.025894424
-0.0026410106 -0.071483329 0.025751505
0.0022915066 -0.070626885 0.025620544
-0.036322355 -0.067166872 0.025564985
-0.032767139 -0.067414686 0.025953345
-0.028024586 -0.067451045 0.026583107
-0.021971505 -0.067082174 0.027234722
-0.017627439 -0.068110272 0.027001189
-0.013209961 -0.067152709 0.027740836
-0.0086140558 -0.06761612 0.027497882
-0.0022372864 -0.067752428 0.027214032
0.0029384897 -0.067829542 0.026899276
0.0071025337 -0.06741298 0.026594235
0.011969204 -0.066733606 0.025799818
0.016200956 -0.065452293 0.025227401
-0.041770846 -0.062070794 0.025714943
-0.036574271 -0.063527457 0.026546218
-0.032972496 -0.062475201 0.027389064
-0.028428871 -0.06255392 0.027732193
-0.022534557 -0.063310549 0.0280539
-0.016508086 -0.063035071 0.02864261
-0.012568398 -0.062877126 0.029053651
-0.0085798688 -0.063284695 0.028811671
-0.0025417004 -0.062419374 0.028987054
0.0020626842 -0.06335061 0.028559947
0.0077067572 -0.062966891 0.028430359
0.01279132 -0.06215338 0.028129132
0.017416628 -0.062512495 0.026908262
0.022046648 -0.061563391 0.026024887
0.025685061 -0.060358085 0.025447156
-0.045978215 -0.056570735 0.025714003
-0.043002341 -0.057388593 0.02683858
-0.037222959 -0.057174455 0.028074402
-0.031500388 -0.058923598 0.028493099
-0.027343052 -0.057984579 0.029234659
-0.02348816 -0.057581309 0.029750325
-0.017222347 -0.059337523 0.029792577
-0.01351275 -0.059640873 0.029854933
-0.0083642937 -0.05967053 0.029901419
-0.0040354035 -0.059676286 0.029890563
0.00082439533 -0.059470441 0.029906318
0.007423596 -0.059349909 0.02964858
0.013460123 -0.05806084 0.029521361
0.01712317 -0.058526583 0.028879948
0.022456162 -0.057876412 0.028087636
0.026909558 -0.057338327 0.026975771
0.031416576 -0.056181133 0.025780927
-0.046524208 -0.052174192 0.026994107
-0.042611923 -0.051989734 0.028439842
-0.037223138 -0.052531902 0.029105118
-0.032140754 -0.052537076 0.02967195
-0.029334059 -0.053391568 0.029904975
0.019145124 -0.05407121 0.0298393
0.02323598 -0.052976172 0.029474154
0.027341533 -0.053137548 0.028718561
0.03261786 -0.052784931 0.027335998
0.03782621 -0.051214997 0.026118856
-0.05077634 -0.046795759 0.025436319
-0.047672354 -0.047747277 0.027507227
-0.042346679 -0.047469206 0.02895561
-0.036419272 -0.046282958 0.029527143
-0.032484949 -0.04859098 0.0298733
0.027362654 -0.047166128 0.029629791
0.033050627 -0.048421804 0.028505931
0.037981994 -0.04818324 0.027429132
0.042233188 -0.047091383 0.026339596
0.045793436 -0.045545921 0.025141792
-0.050759953 -0.041989267 0.025515536
-0.047595676 -0.042708956 0.027643079
-0.041807938 -0.043497272 0.029006688
-0.038334269 -0.042995796 0.02934536
-0.03316132 -0.042319275 0.029872317
0.029934574 -0.041143689 0.029827915
0.033364702 -0.043562949 0.029000565
0.037040908 -0.041999791 0.028465576
0.043643165 -0.043093622 0.026811926
0.046450853 -0.042849127 0.025544025
-0.050402898 -0.037295181 0.025731709
-0.047923673 -0.038473267 0.027364902
-0.042150483 -0.03861865 0.028943492
-0.036781073 -0.037796419 0.029461542
-0.033350732 -0.036982697 0.029779613
-0.026993684 -0.035595965 0.02994727
0.028382659 -0.036211357 0.029840859
0.031961739 -0.037785508 0.029556312
0.036813412 -0.037064962 0.028606258
0.042554177 -0.03738473 0.027267383
0.046336554 -0.037362602 0.025750672
-0.05057792 -0.032863498 0.025468538
-0.047472447 -0.034226418 0.027518414
-0.042871173 -0.033906441 0.028760912
-0.036673423 -0.033918165 0.029289557
-0.032613531 -0.032051556 0.029574784
-0.027982336 -0.03224925 0.029831907
-0.024953771 -0.034213528 0.029974991
0.028638884 -0.03231816 0.029668504
0.033147682 -0.033019744 0.029135577
0.036600623 -0.031443857 0.028715326
0.042921156 -0.032487854 0.027144475
0.046455085 -0.031973127 0.02565355
-0.050568033 -0.029703749 0.025411531
-0.047673538 -0.02966276 0.027307639
-0.04259352 -0.02939729 0.0287452
-0.036498759 -0.028722037 0.029214175
-0.032984506 -0.028229654 0.029379271
-0.02712662 -0.027832553 0.029611694
-0.024231689 -0.026922818 0.029722121
0.017897869 -0.02537166 0.029936222
0.023607064 -0.027741298 0.029812235
0.027647758 -0.027286451 0.029441873
0.032348912 -0.028390769 0.029163484
0.038262561 -0.02751358 0.028592197
0.042571921 -0.027119381 0.027276898
0.046527546 -0.027764186 0.025610832
-0.050398696 -0.022774251 0.025473142
-0.04698877 -0.022810625 0.027564544
-0.042513631 -0.021844545 0.028668631
-0.036901481 -0.0213785 0.029113764
-0.031707488 -0.023452163 0.029259095
-0.02647558 -0.023054544 0.02943749
-0.023457861 -0.022493914 0.029558485
-0.017953491 -0.022959547 0.029766342
-0.011261884 -0.021438831 0.029956341
0.01395135 -0.020983422 0.029852955
0.017054642 -0.02223964 0.02975129
0.022282621 -0.022062331 0.02945902
0.028700927 -0.024065616 0.029107112
0.032160304 -0.022743002 0.028886542
0.038446266 -0.022984192 0.028514378
0.042385213 -0.023142142 0.027394749
0.046477184 -0.022392325 0.025645126
-0.050364003 -0.017974116 0.025421685
-0.048004072 -0.017913222 0.026985327
-0.043475341 -0.01614066 0.028494136
-0.03660484 -0.016535843 0.029099623
-0.0330653 -0.018040117 0.029233046
-0.027323106 -0.016562723 0.029343331
-0.02200293 -0.018815828 0.029518468
-0.016325431 -0.018364195 0.029721363
-0.013262001 -0.019170737 0.029853111
-0.006663091 -0.016464906 0.029959857
0.008963272 -0.015473703 0.029918566
0.011791818 -0.018638926 0.029873958
0.017278422 -0.017865738 0.029589036
0.022477565 -0.017068855 0.029306773
0.026775192 -0.017624073 0.029087799
0.033293378 -0.016329154 0.028873216
0.038685665 -0.01800392 0.028421275
0.042769067 -0.017290885 0.027336372
0.046318378 -0.018244104 0.025762828
-0.050487008 -0.012221083 0.025218934
-0.047180735 -0.0125344 0.027324712
-0.042746555 -0.011558054 0.028583081
-0.037264992 -0.012708758 0.029036893
-0.032673076 -0.011784132 0.029234532
-0.027477767 -0.012856223 0.02935582
-0.023168707 -0.012084112 0.029467257
-0.017846279 -0.012199674 0.029639438
-0.012170558 -0.013485772 0.029814938
-0.0072436514 -0.011478058 0.029912656
-0.0021123898 -0.012398332 0.029983908
0.0040789586 -0.011580244 0.029976262
0.0065917703 -0.011357927 0.029965278
0.011998104 -0.01179585 0.029807359
0.018164756 -0.012415825 0.029494705
0.022817167 -0.012579196 0.029269191
0.026277333 -0.012942369 0.029118383
0.032057635 -0.012513555 0.028928285
0.038205516 -0.012609284 0.02855433
0.04326047 -0.012041128 0.02717945
0.046167362 -0.012555599 0.025807425
-0.050428651 -0.007990133 0.025231086
-0.047315225 -0.0074265003 0.027222214
-0.04273051 -0.0077918833 0.028561478
-0.036862329 -0.0079819569 0.029045092
-0.032162491 -0.0075818952 0.029197671
-0.028456423 -0.0083114076 0.029301282
-0.021933511 -0.0080818618 0.02950377
-0.014183869 -0.0081557753 0.029749149
-0.0071112569 -0.0071006347 0.029904658
-0.0018776956 -0.0074875155 0.029981317
0.0025701954 -0.0079055941 0.029982748
0.0077828267 -0.0074089868 0.029941292
0.013367789 -0.007943267 0.029727122
0.017551979 -0.0077872905 0.029547913
0.023315886 -0.0081966622 0.029285192
0.026597641 -0.0071344506 0.029152509
0.032159757 -0.0077381977 0.028956182
0.038282406 -0.0081712827 0.02850379
0.042343188 -0.0074974424 0.027501149
0.045519512 -0.0078176521 0.026227249
-0.050417226 -0.0029579042 0.025175307
-0.047238801 -0.0025138306 0.027230073
-0.041990098 -0.0023757895 0.028627019
-0.038177833 -0.0025116915 0.028946389
-0.032432903 -0.0034865378 0.029148819
-0.028110562 -0.0016422505 0.02924945
-0.023590684 -0.0029756043 0.029414967
-0.018338602 -0.0028961641 0.029607348
-0.011568862 -0.0028758899 0.029796744
-0.007472991 -0.0030025486 0.02988435
-0.0042543537 -0.0024652008 0.029940126
0.0039136289 -0.0019034557 0.029967656
0.0069039874 -0.0030194011 0.029953834
0.011258034 -0.0033989025 0.0298838
0.016170025 -0.0029485072 0.029656906
0.023067126 -0.0034308874 0.029354138
0.027026694 -0.0010999435 0.029208925
0.033111542 -0.0030551446 0.028938293
0.037889674 -0.0021868313 0.02857147
0.043542881 -0.0019413596 0.02709244
0.04600751 -0.0026778653 0.025875766
-0.05006754 0.0021353208 0.025429327
-0.046690084 0.0027040136 0.027530832
-0.042103276 0.0020655312 0.02861503
-0.03755343 0.002558606 0.028986195
-0.032615226 0.0025670559 0.029107215
-0.027103797 0.0022989751 0.029264724
-0.022627346 0.0016890799 0.029431894
-0.018836603 0.0046752496 0.029546386
-0.012988393 0.0028118638 0.029744087
-0.008047645 0.0011876886 0.029862138
-0.0019128023 0.001725113 0.029954672
0.0011509904 0.00071791274 0.029971698
0.0071534906 0.0037715184 0.029964335
0.012904333 0.00061620295 0.02984586
0.02283198 0.0037413724 0.029565565
0.027356049 0.0029181368 0.029323734
0.03279116 0.0031979259 0.029051313
0.038301859 0.003156537 0.028561128
0.042607807 0.0021555205 0.027410071
0.046267908 0.0023057382 0.025704747
-0.050095171 0.0082789809 0.02528001
-0.047010385 0.0078839641 0.027289525
-0.043243643 0.0076035322 0.028441634
-0.037695769 0.0071427631 0.028964117
-0.032370623 0.0070834621 0.029111287
-0.028248448 0.0081104804 0.029200405
-0.023395851 0.0075524962 0.029369384
-0.01641947 0.0090691186 0.029617045
-0.010264423 0.0080892183 0.029769653
-0.0074150646 0.0076869442 0.029826103
-0.0036518918 0.0098883724 0.029868599
0.00120363 0.008071092 0.029933969
0.014317428 0.0077516753 0.029979233
0.017552624 0.0073431819 0.029890303
0.023700476 0.006989541 0.029734038
0.026575441 0.0072866483 0.029675543
0.033155538 0.0074019693 0.029357318
0.037785355 0.0078203548 0.028883804
0.042046342 0.0074456632 0.027555231
0.046263069 0.0085304016 0.025690632
-0.050177168 0.012651348 0.025139544
-0.047493409 0.012248715 0.027012229
-0.043094851 0.011726967 0.028464099
-0.03824269 0.01292952 0.02895968
-0.031599794 0.012325654 0.029149532
-0.027111951 0.012415983 0.029240929
-0.021389822 0.012406674 0.029423842
-0.018599762 0.011281111 0.029529657
-0.01236906 0.013021782 0.029682811
-0.0066885464 0.013127985 0.02978529
-0.0033792902 0.013490098 0.029835792
0.0029848479 0.013093499 0.029895183
0.0075981091 0.012492829 0.029931532
0.013244471 0.012588145 0.029893726
0.018195342 0.012713963 0.029777136
0.022227362 0.0129561 0.029700646
0.027232666 0.011782029 0.029624011
0.032793138 0.011863391 0.029325295
0.037362356 0.012143554 0.028922912
0.042261459 0.012748155 0.027456481
0.045994606 0.012558163 0.025840027
-0.047923654 0.018030046 0.026720079
-0.043360833 0.017831504 0.028394733
-0.036782861 0.016684232 0.029010737
-0.033436514 0.017812649 0.029059196
-0.027669653 0.018230947 0.02917942
-0.021323588 0.019205198 0.029354248
-0.017463246 0.017715203 0.029492607
-0.012031783 0.017849088 0.029627183
-0.0072757942 0.016718969 0.02972661
-0.0025027292 0.017158492 0.029779417
0.0034591705 0.017166842 0.029819846
0.0066906279 0.017033722 0.029831463
0.012973768 0.01686204 0.029754546
0.02170708 0.017230989 0.029483479
0.025990337 0.01721256 0.02933424
0.032800417 0.017569542 0.028871089
0.038606603 0.017759478 0.028336927
0.042454377 0.017756304 0.027388357
0.046174932 0.017837746 0.025736963
-0.047192998 0.021948585 0.027062925
-0.042661641 0.0225526 0.028458318
-0.037408307 0.022542957 0.028915441
-0.032349806 0.022353994 0.029033137
-0.027720431 0.023575112 0.029129989
-0.022008156 0.023113411 0.029274072
-0.017451126 0.021569187 0.029425455
-0.013257956 0.02231236 0.029505003
-0.007845059 0.022395207 0.029601237
-0.0021092966 0.021868631 0.02967618
0.0024291833 0.021689728 0.029697796
0.0075357994 0.022422429 0.029670332
0.01382611 0.022089094 0.029580669
0.018840911 0.022730174 0.029371336
0.025783267 0.021862537 0.02916104
0.032648966 0.02265157 0.028713137
0.037728306 0.022546271 0.028362967
0.042497661 0.022286246 0.027299797
0.046214718 0.021533357 0.02570712
-0.050086733 0.027822338 0.025030823
-0.047582231 0.027269846 0.026810825
-0.043081969 0.027605766 0.028318783
-0.037848245 0.027285207 0.028839946
-0.03262376 0.028191477 0.029001905
-0.027374675 0.02718444 0.029114261
-0.022161582 0.028745396 0.0292209
-0.018166997 0.027906928 0.029324187
-0.012459562 0.028288944 0.029428372
-0.0062601082 0.026748741 0.029514052
-0.0031725587 0.028122727 0.029513417
0.0023697654 0.027645616 0.029514903
0.0072450191 0.026916314 0.029542774
0.012436323 0.027571859 0.02944419
0.018398454 0.028692493 0.029229239
0.025327021 0.026641164 0.029046079
0.032588117 0.027446054 0.028613992
0.038247582 0.027468408 0.028213343
0.042292967 0.027485695 0.027356721
0.045899604 0.027441857 0.025895305
-0.046887621 0.032161545 0.027128616
-0.04337047 0.032849208 0.028252052
-0.037831064 0.031760655 0.028773567
-0.031249734 0.03244634 0.029019654
-0.027262548 0.031939629 0.029077379
-0.022153653 0.031148484 0.029172856
-0.018136216 0.03190317 0.029260222
-0.0124945 0.031638581 0.029391561
-0.006024261 0.032027029 0.029481705
-0.0030198088 0.032620873 0.029472336
0.002822754 0.032735355 0.029461229
0.0064264201 0.034243144 0.029439162
0.011242047 0.033982027 0.029394554
0.017219685 0.034054019 0.029171258
0.024244057 0.031984609 0.029009812
0.032843754 0.032368962 0.028541861
0.037391286 0.033156391 0.028282057
0.043289959 0.032507904 0.027039606
0.046063628 0.032014642 0.025788682
-0.047696006 0.037305325 0.026627664
-0.043300092 0.037293777 0.028205691
-0.037004665 0.037686862 0.028776467
-0.03237427 0.036928665 0.028968548
-0.027598914 0.037459359 0.029001651
-0.023151172 0.037307866 0.029082814
-0.017029716 0.038033083 0.029180966
-0.010788787 0.035015751 0.029342694
-0.006913777 0.037825733 0.029343881
-0.0024848899 0.038059901 0.029359937
0.0024146105 0.03649528 0.029390337
0.0070402906 0.036565661 0.02937525
0.011727198 0.036543764 0.029308761
0.017808996 0.037307188 0.02907926
0.022902792 0.037905015 0.028946564
0.027492473 0.038258202 0.028739782
0.032527067 0.037769455 0.02848555
0.037321083 0.037949305 0.02820548
0.042808801 0.036547087 0.027145555
0.046188798 0.037608989 0.025709474
-0.047749206 0.042417377 0.0265519
-0.042798743 0.04177206 0.028213598
-0.036843013 0.043567631 0.028754061
-0.032906625 0.043831736 0.028808653
-0.027136622 0.042989589 0.028892595
-0.022750767 0.043377943 0.028959375
-0.017989419 0.043114651 0.029050877
-0.011987148 0.043893125 0.029129639
-0.0078491187 0.043528248 0.029166227
-0.0013670677 0.043247677 0.029251507
0.0025889175 0.041995756 0.029261604
0.0078588929 0.042814173 0.029195433
0.013310001 0.042193335 0.029101634
0.016966799 0.043130428 0.028930791
0.022966869 0.042777427 0.028856743
0.02748104 0.042803202 0.028688183
0.032422811 0.042993594 0.028410753
0.036506798 0.043539464 0.028186716
0.042847831 0.042081308 0.027097836
0.045991093 0.04315009 0.025819683
-0.047443949 0.047663581 0.026629228
-0.043561116 0.047970038 0.028018225
-0.037313711 0.047309324 0.028801469
-0.032739785 0.046428729 0.028952306
-0.02795958 0.04681867 0.0289992
-0.022813331 0.046511285 0.029103743
-0.017416872 0.047761526 0.029126352
-0.011678876 0.046628285 0.029208651
-0.0073087178 0.047678389 0.029255327
-0.0024695985 0.046986002 0.029309632
0.0017737485 0.047590803 0.029285014
0.0075863823 0.047561575 0.029257262
0.012152478 0.047887307 0.029157268
0.017294535 0.047073461 0.029018823
0.023010274 0.048318014 0.028865792
0.027737029 0.047128052 0.028693898
0.034032408 0.047056448 0.028391212
0.03743846 0.048412267 0.028045435
0.042243116 0.046893422 0.027235115
0.045955203 0.047287349 0.025839793
-0.047263503 0.051968906 0.026729509
-0.043527551 0.051414683 0.027975373
-0.037489146 0.052475296 0.028718729
-0.032557648 0.052699599 0.028871864
-0.027938129 0.052945398 0.028903006
-0.021731315 0.052278135 0.029014714
-0.017267009 0.052466847 0.029030886
-0.012523004 0.052291945 0.029107692
-0.0077674338 0.052337728 0.029183755
-0.002003338 0.052539177 0.029248759
0.0023687726 0.052269179 0.029214801
0.007740079 0.051701874 0.029164638
0.012928918 0.052284744 0.029064568
0.016969291 0.053227589 0.028945969
0.022979712 0.052375045 0.028779533
0.026599776 0.053194854 0.02861502
0.033163391 0.052600443 0.028320668
0.038270023 0.053424038 0.027873818
0.04308879 0.053879991 0.026964715
0.045984387 0.052577402 0.025791392
-0.047141131 0.057202116 0.026759202
-0.042567078 0.058009878 0.028060937
-0.037105475 0.057676084 0.028735518
-0.032617178 0.057882249 0.028837882
-0.027923137 0.057257511 0.028906215
-0.022595564 0.057793941 0.028991021
-0.017771007 0.058482062 0.029030589
-0.012971735 0.057222866 0.029107468
-0.0079816617 0.055895906 0.029178344
-0.0021687965 0.056779798 0.029264741
0.0019040441 0.057907373 0.029266249
0.0084636118 0.057203319 0.029202864
0.013085851 0.057968259 0.029082431
0.017757328 0.057393875 0.028944068
0.021918533 0.05724575 0.028821135
0.026600504 0.057549577 0.02861063
0.032105826 0.057739206 0.028366253
0.044780843 0.059555322 0.026439255
-0.047738139 0.063221738 0.026396072
-0.042175781 0.063259095 0.028124169
-0.036894333 0.062598087 0.028764091
-0.031945296 0.062598586 0.028844837
-0.027081523 0.063288458 0.028885636
-0.023681883 0.063679703 0.028923841
-0.018353881 0.062167533 0.029024979
-0.012584879 0.061355032 0.029145818
-0.0078340694 0.061919738 0.029238487
-0.0027830384 0.062865473 0.02930834
0.0031295475 0.061490368 0.029273422
0.0067071826 0.062516868 0.029252743
0.013654002 0.061885599 0.029097335
0.016136101 0.06139617 0.029011851
0.02158921 0.062125396 0.028847499
0.027432179 0.062627926 0.028561408
0.033164293 0.064192407 0.028335765
0.038077716 0.064536229 0.02793172
0.04300081 0.064298756 0.027023301
0.046176761 0.064037092 0.025658147
-0.04742302 0.067796141 0.026614496
-0.042604044 0.067889541 0.028056391
-0.037221842 0.06737715 0.028767617
-0.032030605 0.066874497 0.028898172
-0.026811333 0.067292154 0.028928328
-0.023188954 0.066887073 0.028950065
-0.017892905 0.068166927 0.029055884
-0.012519002 0.06672208 0.029178694
-0.0078371204 0.067163229 0.029300872
-0.0027595852 0.068905003 0.029401695
0.0025882458 0.068167977 0.029363979
0.0077401083 0.06735982 0.029296366
0.012924991 0.066888362 0.029168388
0.017118331 0.068089359 0.029026505
0.022525284 0.066909075 0.02882343
0.026133021 0.06724906 0.028624903
0.044822641 0.068896398 0.026384033
-0.047395542 0.072276302 0.026602443
-0.042936914 0.071937643 0.028003996
-0.037010368 0.072474532 0.028885972
-0.033599887 0.072887681 0.029046424
-0.027733998 0.072543815 0.029009579
-0.023077516 0.072131999 0.02901361
-0.01706239 0.072212584 0.029157037
-0.012423139 0.072996087 0.029252034
-0.0074721086 0.072908193 0.029349128
-0.0019573967 0.073952213 0.029422982
0.002326176 0.071801834 0.029396458
0.0076122456 0.073037945 0.029375762
0.012038099 0.072491981 0.029232487
0.018133372 0.072115831 0.029010421
0.022892125 0.072553232 0.028842892
0.026577312 0.07221581 0.028586652
0.032533526 0.070222579 0.028325887
0.038701069 0.074307702 0.027785102
0.042894594 0.073736146 0.026938492
0.046384018 0.073559776 0.025536768
-0.047069833 0.077035464 0.026781755
-0.042542849 0.077708229 0.028065003
-0.03801392 0.077354684 0.028716478
-0.032728598 0.077819794 0.029158134
-0.027488917 0.077767469 0.029114628
-0.022755509 0.078032002 0.029180698
-0.017728413 0.077561229 0.029253354
-0.011602812 0.078328475 0.029403998
-0.0075218598 0.077244878 0.029448604
-0.0022286482 0.076474167 0.029477123
0.0019285816 0.077760808 0.02955143
0.0078768115 0.077748902 0.029518608
0.011987727 0.07698483 0.029374886
0.017630361 0.077321477 0.02912721
0.021153772 0.076918364 0.028979026
0.027578812 0.076583616 0.02856594
0.033149227 0.075585917 0.028332599
0.037639942 0.079129525 0.027984485
0.042751152 0.078701958 0.026999118
0.046662919 0.079015881 0.025397692
-0.047506131 0.082724467 0.026518799
-0.043080371 0.082897387 0.028005749
-0.037550993 0.082794361 0.028949225
-0.032263089 0.082851566 0.029233625
-0.027869269 0.081823073 0.029168194
-0.022800675 0.082963824 0.029301967
-0.017792854 0.082987137 0.029434934
-0.013172987 0.081732579 0.029484075
-0.007846795 0.083361782 0.029663637
-0.0021386947 0.082681932 0.029710574
0.0023305987 0.082697898 0.029704023
0.0080363164 0.081854366 0.029607585
0.012292379 0.082069345 0.029504247
0.017451497 0.081991464 0.029313868
0.022168495 0.083015278 0.029125905
0.027340245 0.082864836 0.028761726
0.033406943 0.082833037 0.028461905
0.037800062 0.082759313 0.028007677
0.042590111 0.081827931 0.027057525
0.046201441 0.082948945 0.025636153
-0.047396392 0.087451242 0.026546944
-0.041749217 0.087398909 0.028174784
-0.037627034 0.088046029 0.029132301
-0.032433297 0.088236332 0.029282013
-0.028218977 0.087992385 0.029159458
-0.021682469 0.087995522 0.02933613
-0.018111058 0.087554038 0.029466517
-0.011980999 0.088253975 0.029607899
-0.0076489914 0.087771535 0.029677721
-0.0034261465 0.087660722 0.029749602
0.0022764697 0.087444447 0.029747248
0.0078790002 0.087529585 0.029699503
0.012489224 0.087241188 0.029603403
0.01838579 0.087433107 0.029351288
0.02290776 0.087789707 0.02915174
0.026773514 0.087622099 0.028833341
0.032978326 0.087073691 0.028455134
0.036351644 0.086898565 0.028205708
0.042538725 0.087559946 0.027009912
0.045686722 0.087357618 0.025900805
-0.047358118 0.092428759 0.026533308
-0.042963386 0.092561513 0.028021354
-0.036417738 0.092219107 0.029019095
-0.032875262 0.09278287 0.029385034
-0.027867731 0.092879839 0.029412851
-0.023642713 0.092730038 0.029306857
-0.017125325 0.092543617 0.029523181
-0.012721768 0.092571631 0.02965129
-0.0084007522 0.092626713 0.029767869
-0.0025954447 0.092990033 0.029834395
0.0021318442 0.09224657 0.029895067
0.0078552626 0.092275843 0.029892961
0.012656345 0.092865542 0.029734621
0.017509356 0.092078343 0.029530715
0.022379549 0.091919936 0.029272763
0.028261453 0.093141466 0.028856121
0.032836054 0.09361241 0.028580286
0.037404753 0.093318969 0.028083974
0.042697497 0.093535617 0.026980959
0.04611982 0.092524886 0.025647467
-0.046938516 0.097270548 0.026773196
-0.043064207 0.097437218 0.028067393
-0.037430253 0.09721224 0.028673289
-0.032293458 0.097095326 0.029064575
-0.027497441 0.097890317 0.02949507
-0.022883043 0.096411392 0.029346706
-0.018618336 0.096246295 0.029489746
-0.012965888 0.096672624 0.029737998
-0.007838198 0.095987916 0.029747432
-0.0020343305 0.0961328 0.029880427
0.0022067921 0.095805399 0.02986127
0.0082770474 0.09591309 0.029860042
0.012774111 0.096138425 0.029774643
0.017641846 0.09637557 0.029627442
0.022605866 0.097221836 0.029566338
0.027452469 0.097152665 0.029151618
0.032280155 0.09694913 0.028625425
0.037571162 0.096516229 0.027990106
0.042618483 0.097209498 0.026943594
0.045820866 0.09704902 0.025826298
-0.046993271 0.10257491 0.026740214
-0.042431142 0.102848 0.028281169
-0.038576998 0.10229671 0.028718531
-0.031986248 0.10298675 0.029373914
-0.027466338 0.10257193 0.029796783
0.023642434 0.10233605 0.029776344
0.026879054 0.10246975 0.029389154
0.033130776 0.10184035 0.028575931
0.037133306 0.10278587 0.027896447
0.043465376 0.10263395 0.026609495
0.046222363 0.1023608 0.025637371
-0.047002725 0.10775653 0.02636637
-0.041766573 0.10838193 0.028264618
-0.038310893 0.1080632 0.02873731
-0.031635102 0.10910942 0.02925102
-0.027065737 0.10880951 0.029637503
-0.02314217 0.10926692 0.029785825
-0.016919032 0.10973804 0.029906606
-0.012971062 0.10976341 0.029871603
-0.0075438032 0.10975257 0.029902339
-0.0023318771 0.10991734 0.029952437
0.0029528844 0.10977328 0.029887788
0.0077205049 0.10954459 0.029829791
0.012960864 0.10918982 0.029653406
0.016986407 0.10858303 0.029496059
0.022347527 0.10846449 0.029118385
0.027997643 0.10861354 0.028592838
0.031933174 0.10887921 0.028052658
0.037521437 0.10728891 0.027458502
0.042803068 0.10797279 0.026347527
0.045856994 0.10720409 0.025585953
-0.045873869 0.11081561 0.025468294
-0.041889057 0.11183 0.026598545
-0.037712619 0.11253587 0.026763685
-0.031062949 0.1125803 0.02728916
-0.026942583 0.11250983 0.027504781
-0.022819862 0.11233683 0.027740495
-0.016796036 0.11171668 0.028401302
-0.012130431 0.11167611 0.028371109
-0.0072287112 0.11175036 0.027853696
-0.0024964472 0.11118901 0.028755721
0.0025004505 0.11120946 0.02849157
0.0073052021 0.11118562 0.028346838
0.012425167 0.11142682 0.027821181
0.01740991 0.11150853 0.027568504
0.022556622 0.11147945 0.027574237
0.027743539 0.11152924 0.027199594
0.03219185 0.11156812 0.026660863
0.037042081 0.11122012 0.026353737
0.042712726 0.11088262 0.025518814
0.045129016 0.11007434 0.025176968
-0.025577582 -0.055020075 0.030005571
-0.021833455 -0.056537814 0.03013243
-0.017785002 -0.057344496 0.030234937
-0.012822048 -0.057108801 0.030447455
-0.0070346645 -0.057151299 0.030552294
-0.001895052 -0.056998719 0.030584538
